ply
format ascii 1.0
comment Reconstruct SLAM ply output
element vertex 1574
property float x
property float y
property float z
end_header
0.00678701 -0.0722093 -0.596018
0.01074 -0.0755932 -0.614741
0.0218167 -0.120484 -0.592346
0.0226116 -0.0412667 -0.609045
0.0208229 -0.0466274 -0.609355
0.0200389 -0.0865274 -0.618282
0.049831 -0.104563 -0.53018
0.0505779 -0.0301925 -0.391449
-0.029887 0.0671908 -0.535568
-0.000113188 -0.0899478 -0.601118
0.0217709 -0.0464763 -0.600991
-0.00571464 -0.0944197 -0.608508
0.040857 -0.00627388 -0.381918
0.0414849 0.0150954 -0.381675
0.0405739 -0.0295983 -0.382633
0.0433929 -0.0207533 -0.393819
0.0544227 0.016661 -0.393961
0.0527902 -0.0556612 -0.551539
0.0532664 -0.0555515 -0.554347
0.0571305 -0.082775 -0.484344
-0.102973 -0.0375642 -0.350872
0.041597 -0.027981 -0.39171
-0.101135 -0.0378105 -0.350999
0.0525646 -0.0198819 -0.386273
-0.105513 -0.0307643 -0.361319
-0.102609 -0.0401621 -0.349543
-0.102276 -0.0404514 -0.348998
-0.108103 -0.031261 -0.360466
-0.105489 -0.0404788 -0.355222
-0.102049 -0.0406795 -0.348479
-0.0362383 0.00694301 -0.596315
-0.102443 -0.0398749 -0.348822
-0.0360821 -0.0564865 -0.600455
-0.101592 -0.0379646 -0.351582
-0.0956713 -0.0337342 -0.355908
-0.0857501 -0.0208877 -0.615128
-0.0976226 -0.0352377 -0.367339
-0.0812661 -0.0975419 -0.594054
-0.0416425 -0.0530724 -0.597664
-0.126732 -0.0855991 -0.59293
-0.157798 -0.102667 -0.58969
-0.116439 -0.104879 -0.594744
-0.0549853 -0.0789742 -0.602727
-0.0787531 -0.120915 -0.593974
-0.151385 -0.0994655 -0.591521
-0.0174616 -0.125408 -0.585736
-0.074664 -0.00489687 -0.59727
-0.10446 0.0632539 -0.518161
-0.0838136 -0.0631144 -0.590589
-0.0549705 -0.0817603 -0.596563
-0.0787739 -0.0967415 -0.595478
-0.111506 -0.101287 -0.593773
-0.0833277 -0.0670579 -0.589821
-0.149919 -0.101927 -0.593316
-0.115906 0.0171595 -0.589438
-0.127064 -0.081636 -0.591623
-0.124789 -0.084329 -0.593962
-0.0111836 -0.0495598 -0.610245
-0.0967958 0.0556491 -0.517526
-0.0568603 -0.102206 -0.59418
-0.0745093 -0.00495104 -0.59475
-0.038405 0.0608679 -0.533924
-0.045912 0.0527031 -0.56888
-0.0887347 0.061533 -0.518163
-0.0790654 -0.121189 -0.595387
-0.126991 -0.0844366 -0.592144
-0.149531 -0.101647 -0.591461
-0.122112 0.0144064 -0.609296
-0.0341903 0.00505813 -0.598752
-0.0407265 -0.0549897 -0.602914
-0.107494 0.054206 -0.518294
-0.0763032 -0.0234042 -0.598932
-0.0457527 0.0508791 -0.565729
0.0549487 -0.070593 -0.492051
0.0536742 -0.110678 -0.550093
-0.116244 -0.102998 -0.593391
-0.0952732 0.0549935 -0.513031
-0.120419 -0.038667 -0.561793
-0.0783823 -0.0242096 -0.617944
-0.115229 0.00756266 -0.584813
-0.103241 0.0640466 -0.516942
-0.0343415 0.00581305 -0.601894
-0.0744511 -0.00561376 -0.593122
-0.10726 0.0553685 -0.520757
-0.0836422 -0.0662805 -0.594421
-0.0948385 0.0561523 -0.519733
-0.0412794 -0.0564641 -0.595968
0.0252815 -0.0422488 -0.609873
0.0223193 -0.046798 -0.603547
0.0224715 -0.0421661 -0.600557
-0.0343812 0.0054857 -0.596844
-0.0546147 -0.0811337 -0.598645
0.0553 -0.0818306 -0.476523
-0.0332622 0.0066358 -0.59897
-0.0865556 -0.0651505 -0.593894
-0.117426 -0.101261 -0.591545
-0.102405 -0.0412449 -0.349241
0.0417914 0.0142481 -0.380911
-0.000784259 -0.0896198 -0.598609
-0.0794746 -0.0944369 -0.595394
-0.0847098 -0.0233797 -0.608671
0.0423725 -0.0182794 -0.38817
0.0435055 -0.00393289 -0.390374
-0.0593873 -0.103348 -0.597142
-0.128454 -0.0834579 -0.591001
0.0420951 -0.00423897 -0.388348
-0.0854067 -0.0219988 -0.594495
-0.114623 0.0252403 -0.584958
-0.0569549 -0.0802909 -0.598305
-0.10118 -0.0435486 -0.351052
0.0499566 -0.0139507 -0.384054
-0.10381 0.0640725 -0.517018
-0.0881451 0.058622 -0.520635
-0.115212 -0.0407801 -0.518595
-0.114538 0.0233629 -0.585102
-0.0136754 -0.0361939 -0.599067
-0.113483 0.0222957 -0.600189
-0.0986042 -0.0416381 -0.352179
-0.110276 -0.104096 -0.59509
0.0577686 -0.0386713 -0.532718
-0.0758564 -0.0232438 -0.596351
-0.10319 0.0647956 -0.514574
-0.115534 0.017874 -0.589285
-0.11043 -0.103986 -0.594954
-0.11678 0.0705618 -0.51074
-0.113084 0.0265328 -0.577517
0.00231901 -0.0839606 -0.60749
0.0407244 -0.0272623 -0.386378
-0.0573679 -0.104208 -0.596273
-0.126252 -0.0842297 -0.591952
-0.0580652 -0.103587 -0.591951
-0.0847417 -0.0653457 -0.590068
0.0399478 -0.00141998 -0.374674
0.0407819 -0.0112823 -0.384359
0.0550809 -0.0590616 -0.568577
0.0529501 -0.0631489 -0.565273
-0.0103536 -0.130012 -0.600306
-0.1019 -0.0435347 -0.349307
-0.125837 -0.000804227 -0.373842
-0.104031 -0.0441535 -0.353489
-0.127856 -0.0229249 -0.376845
-0.113713 -0.0227671 -0.367297
-0.102848 -0.0375404 -0.352523
-0.101839 -0.0436966 -0.349107
-0.100435 -0.0346666 -0.353157
0.0502339 -0.0208944 -0.389519
0.043597 0.0270559 -0.386121
-0.103654 0.0655895 -0.516794
-0.125508 -0.00991181 -0.372401
-0.127096 -0.013532 -0.376565
0.0367634 0.0271455 -0.395584
-0.132635 0.0308226 -0.39283
-0.11604 -0.0233979 -0.376103
-0.100393 -0.0349174 -0.352796
-0.119377 -0.0268337 -0.377038
-0.129981 0.0298347 -0.384361
-0.125388 0.0269769 -0.376191
-0.127202 -0.0135308 -0.376922
-0.119045 -0.0278705 -0.376391
-0.0977369 -0.0399987 -0.338658
-0.0129455 -0.0474287 -0.596151
0.0546496 -0.0394111 -0.519848
-0.109644 -0.103635 -0.592188
-0.0823215 -0.0655988 -0.594642
0.0116253 -0.105624 -0.593845
-0.095732 0.0556941 -0.515264
0.05141 -0.110979 -0.53112
-0.0575155 -0.104574 -0.598277
-0.0773436 -0.0238932 -0.597926
0.0346596 0.0276507 -0.386973
0.0223222 -0.121656 -0.596695
-0.131381 -0.0212735 -0.362651
-0.0997569 -0.0417743 -0.347861
-0.100011 -0.0432869 -0.346537
-0.116627 -0.0210857 -0.367111
-0.131529 -0.0221878 -0.363131
-0.131243 -0.022965 -0.362412
-0.132225 -0.0254619 -0.360272
-0.122267 -0.00293342 -0.360727
-0.0937067 -0.0324329 -0.36062
-0.0937499 -0.0323795 -0.359974
-0.12783 0.0322696 -0.361376
-0.111602 -0.0225314 -0.359612
-0.110904 -0.0307495 -0.374864
-0.130609 -0.0281295 -0.387024
-0.107702 -0.0315956 -0.363471
-0.101535 -0.038345 -0.351212
-0.114128 0.02591 -0.59069
-0.0387963 0.0720594 -0.522121
-0.0747242 -0.00480339 -0.594611
0.05471 -0.0984658 -0.502307
0.0600012 -0.0743676 -0.514737
-0.102381 -0.0409917 -0.349321
-0.125218 0.0396945 -0.378737
-0.103248 0.0626791 -0.513677
0.0493086 -0.040336 -0.489981
-0.0127168 -0.0487389 -0.60044
-0.0550336 -0.0806517 -0.598
-0.0813616 -0.00950437 -0.592053
-0.118126 0.0152233 -0.585881
-0.0809255 -0.0970124 -0.593747
-0.0385864 0.0597288 -0.527694
0.041857 -0.01628 -0.389745
0.0531659 -0.101707 -0.496874
-0.123327 0.0389326 -0.372272
-0.0810921 -0.0161265 -0.589508
-0.0747521 -0.0214871 -0.595641
-0.0756987 -0.0231482 -0.596238
-0.116538 -0.12376 -0.589576
-0.0959853 0.054612 -0.509398
-0.0808467 -0.12343 -0.595634
-0.079412 -0.0950964 -0.597199
0.0560619 -0.100287 -0.508053
-0.076145 -0.0224617 -0.609216
0.0134663 -0.0798395 -0.621404
-0.0836054 -0.00564993 -0.597102
-0.100226 -0.0361389 -0.356301
-0.0907523 -0.0290483 -0.36096
-0.0920235 -0.0293194 -0.363015
-0.0873697 -0.0278348 -0.365764
-0.136636 -0.017528 -0.362719
-0.0849048 -0.00441004 -0.595492
-0.116101 -0.103002 -0.595903
-0.0888164 -0.0244256 -0.364493
-0.092174 -0.029413 -0.362729
-0.104783 -0.0394454 -0.3641
-0.0409738 -0.0563535 -0.595839
-0.0996076 -0.0410296 -0.341661
-0.127756 -0.0229144 -0.377261
-0.115457 0.00735101 -0.585235
0.0236249 -0.119239 -0.60379
-0.0583391 -0.104794 -0.593385
-0.112782 0.024912 -0.597225
0.0189353 -0.107547 -0.617647
0.0488797 -0.0536609 -0.5325
-0.246333 -0.0782069 -0.584815
-0.243459 -0.0864898 -0.583263
0.0244008 -0.120802 -0.618513
-0.232185 -0.049434 -0.584627
-0.246939 -0.0857881 -0.584682
-0.230829 -0.0497983 -0.589416
-0.227899 -0.0571288 -0.586667
-0.109823 0.0563163 -0.532247
-0.0167653 -0.126121 -0.60045
-0.227759 -0.056774 -0.586452
-0.104851 -0.0395707 -0.352058
-0.0731027 -0.127267 -0.596283
-0.112049 0.0268407 -0.571888
-0.206143 0.0175892 -0.514933
-0.10451 -0.0366387 -0.356645
-0.0814082 -0.00938672 -0.594346
-0.0921963 -0.0290281 -0.363161
-0.0342456 0.00527289 -0.598902
-0.106643 -0.0405736 -0.33021
-0.246397 -0.0751133 -0.557291
-0.250302 -0.0776181 -0.585715
-0.242269 -0.0796251 -0.585531
-0.213725 0.0231065 -0.505538
-0.217701 0.0136169 -0.516164
-0.243281 -0.0810106 -0.586139
-0.245335 -0.0782417 -0.581203
-0.222292 -0.03279 -0.586618
-0.216373 0.0129606 -0.502771
-0.243439 -0.0806515 -0.585468
-0.22988 -0.0514699 -0.586429
-0.183105 0.024833 -0.578638
-0.0907524 -0.0291117 -0.361311
-0.205048 0.0172611 -0.514318
-0.104859 -0.0380136 -0.357682
-0.2188 0.0125493 -0.512662
-0.252443 -0.0870987 -0.585774
-0.106754 -0.0402908 -0.343632
-0.0900464 -0.022857 -0.355664
-0.182855 0.0243123 -0.572841
-0.216966 0.0211584 -0.499261
-0.102395 -0.0353371 -0.354169
-0.253386 -0.08402 -0.584667
-0.259344 -0.0192666 -0.583927
-0.254508 -0.0131025 -0.585726
-0.274318 -0.0449872 -0.583584
-0.272568 -0.0433563 -0.58392
-0.244781 -0.0879323 -0.589425
-0.253218 -0.0851557 -0.582347
-0.0405887 -0.0547428 -0.596822
-0.257661 -0.0192804 -0.584264
-0.247942 -0.0845081 -0.564793
-0.256613 -0.0185578 -0.581321
-0.197786 0.0109368 -0.518011
-0.185239 0.0652393 -0.557453
-0.239634 0.00789595 -0.500616
-0.198192 0.0105273 -0.512956
-0.244002 -0.082589 -0.589377
-0.22262 -0.0333432 -0.587791
-0.0956233 -0.0337869 -0.356487
-0.198307 0.0107431 -0.520037
-0.185866 0.0658306 -0.56197
-0.215956 0.0231026 -0.529218
-0.244378 0.00861303 -0.495596
-0.250855 0.00406036 -0.508379
-0.198369 0.00955455 -0.515577
-0.24166 0.00788203 -0.510646
-0.2407 0.00733428 -0.503653
-0.0978861 -0.043678 -0.358497
-0.0748525 -0.128708 -0.590604
-0.174674 -0.0750989 -0.586969
-0.0934954 -0.0323118 -0.359922
-0.285623 -0.0414437 -0.582405
-0.00761446 -0.0783239 -0.603953
-0.0808561 -0.0972119 -0.608737
-0.281592 -0.0496443 -0.582912
-0.291469 -0.0932119 -0.582246
-0.083176 -0.0215111 -0.581987
-0.173025 -0.0727358 -0.586888
-0.274359 -0.0451173 -0.583101
-0.00922864 -0.0937573 -0.599247
-0.240961 0.0638772 -0.568501
-0.118117 0.00497883 -0.583743
-0.0842506 -0.0212537 -0.586045
-0.19354 -0.0410175 -0.569757
-0.239409 0.0623261 -0.554866
-0.243786 0.00314476 -0.504263
-0.240284 0.0639827 -0.565413
-0.218396 0.0215809 -0.510064
-0.273933 -0.0438712 -0.583918
-0.243567 0.0238901 -0.485257
-0.249087 0.024636 -0.493838
-0.279353 -0.0347812 -0.582432
-0.299105 -0.0550856 -0.581353
-0.128258 0.0328464 -0.367386
-0.252556 0.00903107 -0.487681
-0.193398 -0.0243154 -0.579546
-0.25166 0.0250596 -0.5033
-0.128156 0.0325527 -0.359164
-0.29654 -0.0605515 -0.580666
-0.0976769 -0.0246712 -0.373018
-0.2917 -0.0923413 -0.581928
-0.0815718 -0.0666731 -0.601137
-0.0975755 -0.0240595 -0.370921
-0.193402 -0.0256182 -0.590456
-0.102244 -0.0243545 -0.370298
-0.247911 0.00409707 -0.498886
-0.288769 -0.0546746 -0.582655
-0.243562 0.0245778 -0.492873
-0.098335 -0.0166238 -0.366071
-0.0629597 -0.0979548 -0.56824
-0.105238 -0.0416014 -0.351061
-0.253565 0.00924669 -0.493873
-0.0837651 -0.0232762 -0.603561
-0.296865 -0.0885558 -0.581553
-0.0744811 -0.00511944 -0.594402
-0.16938 -0.0433615 -0.588796
-0.262539 0.00541335 -0.490913
-0.258149 0.00644233 -0.488713
-0.253376 0.00880429 -0.491694
-0.247007 0.00431303 -0.499539
-0.121041 -0.0229803 -0.368994
-0.116536 -0.0211388 -0.367372
-0.104562 -0.0386308 -0.357961
0.00195931 -0.072311 -0.576359
-0.259069 0.00719474 -0.504683
-0.0347597 -0.05522 -0.600908
-0.0993469 -0.0405874 -0.346982
-0.299059 -0.0562498 -0.581011
-0.279123 -0.0368231 -0.583597
-0.104329 -0.0441639 -0.35229
-0.10756 -0.0219308 -0.371405
-0.169164 -0.0797371 -0.594814
-0.18408 -0.0417119 -0.589266
-0.108247 -0.0215883 -0.36711
-0.258865 0.0053636 -0.478784
-0.101585 -0.02474 -0.373692
-0.212721 0.0246385 -0.556355
-0.293086 -0.0499134 -0.582664
-0.156075 -0.103427 -0.59021
-0.245409 -0.0882249 -0.587315
-0.104068 -0.0299163 -0.356444
-0.102297 -0.0241796 -0.370329
-0.248932 0.0250579 -0.486691
-0.155635 -0.104869 -0.590025
-0.109305 -0.0302001 -0.362742
-0.0990149 -0.0153355 -0.364106
-0.186922 -0.0436441 -0.589636
-0.243785 -0.0866142 -0.584158
-0.103327 -0.0355754 -0.337047
-0.109099 -0.0304718 -0.365005
-0.0983343 -0.0157299 -0.36709
-0.247993 0.00414969 -0.499355
-0.248941 0.0247286 -0.490878
-0.0846813 -0.00515323 -0.5956
-0.253415 0.00848537 -0.490842
-0.259892 0.00574202 -0.487177
-0.103114 -0.0307775 -0.36287
-0.111563 -0.025188 -0.383637
-0.132187 0.0420381 -0.395482
-0.103818 -0.0298148 -0.355517
0.0112049 -0.0786285 -0.610597
-0.0903412 -0.0247826 -0.367654
-0.214354 0.0621275 -0.564505
-0.32928 -0.0943247 -0.57914
-0.116716 -0.0139981 -0.370981
-0.0866088 -0.024709 -0.373999
-0.288949 -0.0556717 -0.58183
-0.261203 0.0198227 -0.455285
-0.323486 -0.0442787 -0.578825
-0.114487 -0.0221249 -0.365322
-0.115331 -0.0250152 -0.371365
-0.112515 -0.0285274 -0.372069
-0.104486 -0.0311125 -0.36406
-0.243888 0.00329894 -0.504866
-0.264945 0.0218671 -0.455158
-0.103209 -0.0358142 -0.33778
-0.0996642 -0.0413097 -0.348552
-0.31921 -0.0436308 -0.579989
-0.25489 0.009766 -0.47418
-0.117184 -0.0137697 -0.367212
-0.11393 -0.0225154 -0.367761
-0.113172 -0.0124145 -0.360631
-0.0349554 0.00537988 -0.595192
-0.169685 -0.078263 -0.598577
-0.292347 -0.0922467 -0.581762
-0.0827257 -0.0238803 -0.607634
-0.107352 -0.02199 -0.370175
-0.119839 -0.023893 -0.377128
-0.255167 -0.0860456 -0.58487
-0.103811 -0.0369901 -0.361048
-0.114778 -0.0253841 -0.37731
-0.28141 -0.0491684 -0.583714
-0.0829585 -0.0208199 -0.557778
-0.103716 -0.0301265 -0.356175
-0.213027 0.0257454 -0.569001
-0.183123 0.0266132 -0.573701
-0.297274 -0.0616166 -0.581466
-0.183903 -0.0257956 -0.588043
-0.214099 0.0228114 -0.510336
-0.156871 -0.102806 -0.589275
-0.287727 -0.0429275 -0.582761
-0.287386 -0.0540854 -0.582907
-0.322217 -0.0463605 -0.580248
-0.173356 -0.0722965 -0.584114
-0.114404 0.00107928 -0.391491
-0.28717 -0.000202678 -0.47702
-0.0901266 -0.0232946 -0.359974
-0.114004 -0.0224898 -0.36923
-0.103754 -0.0291578 -0.35642
-0.11305 -0.0280055 -0.37032
-0.196975 0.0112411 -0.515944
-0.264615 0.0243596 -0.4592
-0.119579 -0.0263179 -0.378593
-0.112878 -0.0121034 -0.360485
-0.118534 -0.00181632 -0.370927
-0.329844 -0.0934718 -0.579377
-0.287642 0.00227394 -0.478975
-0.109772 -0.0265303 -0.372463
-0.283828 -0.00218522 -0.48154
-0.169175 -0.078212 -0.58871
-0.166818 -0.0477618 -0.586971
-0.284548 -0.00319211 -0.481653
-0.114068 0.029042 -0.388616
-0.193207 -0.0418835 -0.581913
-0.111133 0.0311122 -0.411742
-0.294613 -0.049408 -0.582213
-0.11104 -0.0252974 -0.362167
-0.114805 -0.0282202 -0.375943
-0.270146 0.0237752 -0.472047
-0.2951 -0.0600199 -0.582839
-0.0384022 0.062845 -0.531695
-0.102053 -0.0244248 -0.371716
-0.256415 0.0098844 -0.479372
-0.100995 -0.0455901 -0.355491
-0.301024 -0.0569581 -0.582269
-0.0988438 -0.0420637 -0.348034
-0.127555 -0.0247549 -0.377414
-0.119056 -0.0240621 -0.38708
-0.231796 -0.0493206 -0.583534
-0.127522 -0.0229312 -0.377991
-0.117459 0.00261884 -0.380164
-0.117835 -0.00150704 -0.378643
-0.119095 -0.0143035 -0.380004
-0.118847 -0.00776477 -0.368495
-0.296857 -0.0027014 -0.474536
-0.337231 -0.0968002 -0.579184
-0.118478 -0.00828916 -0.372262
-0.115835 -0.0119389 -0.357221
-0.296404 -0.0024118 -0.475082
-0.112078 0.0330098 -0.375845
-0.0741997 -0.129418 -0.597534
-0.157286 -0.102779 -0.58958
-0.118208 -0.00864128 -0.374763
-0.119269 -0.023898 -0.378357
-0.111708 -0.0250977 -0.362403
-0.260827 0.0229079 -0.451478
-0.119564 -0.0232979 -0.37332
-0.119343 -0.0230324 -0.370762
-0.281144 -0.0366987 -0.582791
-0.246768 -0.0809971 -0.585224
-0.319972 -0.0416716 -0.580141
-0.181381 0.0121705 -0.582962
-0.2462 0.056456 -0.485302
-0.0798349 -0.122458 -0.592178
-0.258998 0.00490478 -0.499942
-0.258418 0.00458473 -0.499832
-0.0997411 -0.0419137 -0.347858
-0.184327 -0.0415309 -0.585689
-0.134556 -0.0492503 -0.583086
-0.226173 -0.0555515 -0.58671
-0.114331 -0.0237214 -0.371675
-0.118479 -0.014792 -0.386911
-0.104683 -0.0388792 -0.336095
-0.0964026 -0.0240984 -0.367305
-0.119678 -0.0139019 -0.372918
-0.111782 -0.0344572 -0.294429
-0.103339 -0.0448403 -0.358286
-0.118732 -0.0142451 -0.379787
-0.0941415 -0.0323336 -0.358911
-0.104984 -0.0395493 -0.352383
-0.105835 -0.0312546 -0.369496
-0.0985448 -0.0160591 -0.365026
-0.110569 -0.0271683 -0.36187
-0.114383 -0.0125357 -0.372148
-0.100937 -0.0384698 -0.358509
-0.0972932 -0.0156779 -0.37484
-0.286597 -0.000223823 -0.479225
-0.183837 -0.0229414 -0.587572
-0.297572 -0.0915119 -0.582241
-0.28725 0.00236829 -0.478235
-0.0983923 -0.0245785 -0.371394
-0.104168 -0.0443605 -0.352989
-0.210824 0.0244235 -0.536563
-0.252701 -0.0762019 -0.584918
-0.110679 -0.0254887 -0.364416
-0.305249 0.00546547 -0.470713
-0.306654 0.00341808 -0.472116
-0.353291 -0.0875708 -0.576315
-0.300703 -0.00784252 -0.4649
-0.097833 -0.015546 -0.370207
-0.338145 -0.094035 -0.577767
-0.355483 -0.0566729 -0.577102
-0.306351 0.00352876 -0.471329
-0.300191 -0.00810818 -0.46449
-0.0944263 -0.0186348 -0.509419
-0.349784 -0.0561458 -0.578519
-0.300007 -0.00783174 -0.465112
-0.282523 -0.000840594 -0.482137
-0.182777 0.0040895 -0.585587
-0.320502 -0.0446391 -0.580161
-0.126617 -0.00898058 -0.377118
-0.105845 -0.0375043 -0.349656
-0.131255 -0.0231226 -0.358692
-0.132174 -0.0249459 -0.357431
-0.131363 -0.0257304 -0.36798
-0.128045 0.0327508 -0.365672
-0.119052 -0.00985285 -0.329734
-0.132396 -0.0251974 -0.35956
-0.296265 -0.0903378 -0.58195
-0.117061 -0.129222 -0.601259
-0.261668 0.00517113 -0.515086
-0.102894 -0.0389658 -0.356377
-0.100711 -0.0424947 -0.370308
-0.129908 -0.0419418 -0.578206
-0.216091 0.0134192 -0.500832
-0.291604 -0.0905477 -0.58303
-0.150351 -0.102741 -0.596396
-0.210325 0.0644255 -0.575113
-0.21415 0.0635246 -0.565403
-0.281756 -0.0501483 -0.58316
-0.280219 -0.0479292 -0.582569
-0.367674 -0.0729625 -0.576447
-0.254347 -0.0125127 -0.584716
-0.377059 -0.103362 -0.576547
-0.20561 0.0233055 -0.548369
-0.132375 -0.0249399 -0.355046
-0.203915 0.0223578 -0.532635
-0.12475 0.0118486 -0.392308
-0.127366 -0.0135483 -0.377467
-0.172809 -0.0747138 -0.586672
-0.258337 0.0193515 -0.44456
-0.111885 -0.0138245 -0.391705
-0.128921 -0.023805 -0.379227
-0.293506 -0.0491091 -0.581729
-0.17404 -0.0733829 -0.573087
-0.182994 0.0263175 -0.582245
-0.106742 -0.0234874 -0.363603
-0.296722 0.00329099 -0.476367
-0.354046 -0.0877308 -0.576949
-0.126261 0.0100692 -0.377111
-0.168215 -0.0453629 -0.588154
-0.119407 -0.024063 -0.379463
-0.19463 -0.0420276 -0.579209
-0.167949 -0.0736776 -0.57611
-0.305122 0.00346117 -0.47284
-0.35258 -0.0575521 -0.577864
-0.193418 -0.0238672 -0.575999
-0.377633 -0.102219 -0.576104
-0.286152 -0.0429334 -0.581184
-0.117928 0.00418717 -0.373678
-0.124969 -0.0819563 -0.583917
-0.133411 -0.0501739 -0.588028
-0.357735 -0.0121303 -0.481815
-0.242976 -0.0871984 -0.574903
-0.368058 -0.0740241 -0.577472
-0.37757 -0.100224 -0.574998
-0.35263 -0.0571783 -0.577205
-0.367747 -0.0762745 -0.576206
-0.149468 -0.10156 -0.591827
-0.213674 0.0223576 -0.50621
-0.173572 -0.0346305 -0.546782
-0.259897 -0.0193952 -0.585398
-0.395386 -0.0731036 -0.576752
-0.368666 -0.0806986 -0.5753
-0.320551 -0.0442766 -0.582452
-0.122513 -0.0400988 -0.570532
-0.399807 -0.0617303 -0.566128
-0.351328 -0.0542338 -0.576699
-0.297053 -0.0594241 -0.581271
-0.204457 0.0167288 -0.529518
-0.353258 -0.0880084 -0.577581
-0.361248 -0.0151191 -0.483649
-0.365979 -0.0795156 -0.575699
-0.403753 -0.063367 -0.573327
-0.283149 -0.00154124 -0.480115
-0.224388 -0.0320131 -0.589262
-0.24342 0.00306794 -0.502476
-0.400551 -0.0717077 -0.574487
-0.366108 -0.00974702 -0.477093
-0.116012 -0.104035 -0.595305
-0.353561 -0.0579901 -0.57661
-0.290861 -0.0526169 -0.584673
-0.252275 0.00846704 -0.466716
-0.296668 0.00375075 -0.475621
-0.288679 -0.0554559 -0.582041
-0.430072 -0.0448551 -0.572238
-0.432129 -0.0477565 -0.572189
-0.416969 -0.0899705 -0.572692
-0.173318 -0.0748087 -0.594997
-0.385171 -0.0123239 -0.538105
-0.293931 -0.00675374 -0.47011
-0.259387 -0.0902784 -0.617829
-0.379958 0.0320907 -0.483924
-0.399303 -0.0736533 -0.572079
-0.376287 -0.0134453 -0.478713
-0.417634 -0.0903183 -0.573772
-0.293004 -0.00718104 -0.475101
-0.367671 -0.0798118 -0.576966
-0.283272 -0.047707 -0.593817
-0.464901 -0.101524 -0.57051
-0.324401 -0.0441061 -0.578969
-0.368244 -0.0146386 -0.480679
-0.464357 -0.0836558 -0.568535
-0.461323 -0.0879544 -0.568277
-0.452264 -0.0608416 -0.569793
-0.367661 -0.0744161 -0.576774
-0.454717 -0.0616209 -0.56877
-0.469404 -0.0993858 -0.56799
-0.454722 -0.0545912 -0.569543
-0.299066 -0.00780286 -0.465055
-0.357169 -0.0118065 -0.482085
-0.453453 -0.0609875 -0.569689
-0.465695 -0.0859322 -0.568913
-0.184582 -0.0412952 -0.584356
-0.378514 -0.0174581 -0.479452
-0.453601 -0.0599225 -0.570827
-0.359787 -0.018433 -0.478811
-0.387216 -0.101331 -0.574663
-0.382401 0.0342891 -0.508816
-0.368043 -0.080419 -0.578402
-0.462747 -0.0861848 -0.56919
-0.357089 -0.0115838 -0.482434
-0.288631 -0.0550089 -0.58294
-0.429032 -0.051561 -0.57163
-0.297145 -0.00351585 -0.467886
-0.367754 -0.0732823 -0.576386
-0.337243 -0.0946339 -0.578636
-0.419262 -0.0896421 -0.571374
-0.43226 -0.0470441 -0.570549
-0.496284 -0.0943938 -0.564837
-0.48227 -0.019706 -0.568548
-0.296697 0.00340549 -0.475382
-0.400849 -0.0643326 -0.573273
-0.428769 -0.0509632 -0.572356
-0.455112 -0.056026 -0.571306
-0.500113 -0.0925501 -0.559783
-0.498504 -0.0580998 -0.566572
-0.485155 -0.0210454 -0.56779
-0.359933 -0.0182923 -0.479988
-0.418774 0.0486978 -0.384924
-0.494712 -0.062325 -0.564501
-0.381002 0.0343229 -0.483845
-0.493227 -0.0612441 -0.564948
-0.27825 -0.00198628 -0.505086
-0.396557 -0.0727021 -0.574818
-0.228038 -0.0577916 -0.58467
-0.220656 -0.033245 -0.579646
-0.419957 0.0480446 -0.385049
-0.343698 0.0361361 -0.482519
-0.440019 0.0385193 -0.393275
-0.344446 0.035054 -0.483087
-0.350053 0.0241089 -0.494632
-0.497358 -0.0585419 -0.568892
-0.493707 -0.061839 -0.570113
-0.398947 -0.0650165 -0.574167
-0.426409 0.0546442 -0.378935
-0.349044 0.0187853 -0.485013
-0.486427 -0.0866034 -0.526635
-0.399621 -0.0724396 -0.576666
-0.421149 0.0571082 -0.368054
-0.305582 0.00361613 -0.472304
-0.417985 -0.0896611 -0.571983
-0.482218 -0.0204521 -0.567988
-0.482406 -0.0250494 -0.56839
-0.494045 -0.0615294 -0.567142
-0.379817 -0.0187263 -0.490509
-0.482439 -0.0249 -0.568317
-0.498458 -0.0967055 -0.566399
-0.501496 -0.0935829 -0.57138
-0.422473 0.0483161 -0.387097
-0.387649 -0.103305 -0.575505
-0.423371 0.0575977 -0.342726
-0.44101 0.0404601 -0.395842
-0.347823 0.0232334 -0.480711
-0.447877 0.0583639 -0.37131
-0.421804 0.0584792 -0.376315
-0.432978 0.059633 -0.342336
-0.445387 0.0481818 -0.370483
-0.43172 0.0588511 -0.338793
-0.456729 0.0334771 -0.377145
-0.433664 0.0594926 -0.346657
-0.438537 0.0461827 -0.400791
-0.420639 0.0586357 -0.355386
-0.436082 0.0549993 -0.374567
-0.441875 0.0563836 -0.36929
-0.428179 0.0591355 -0.343534
-0.395258 -0.0730218 -0.575456
-0.439739 0.0410666 -0.374493
-0.48301 -0.0257704 -0.568137
-0.45528 0.058369 -0.368383
-0.437675 0.0596552 -0.34295
-0.465043 0.0182153 -0.39682
-0.450418 0.0609235 -0.359844
-0.437952 0.0425208 -0.379492
-0.44383 0.057284 -0.367861
-0.46858 -0.0468268 -0.385027
-0.458771 0.0250536 -0.379215
-0.410071 0.0624771 -0.430647
-0.440555 0.056278 -0.36654
-0.443451 0.0605785 -0.335504
-0.433103 0.0598314 -0.343001
-0.349269 -0.0559134 -0.577731
-0.454848 0.034113 -0.382858
-0.339915 0.0440964 -0.507666
-0.420627 0.0585548 -0.35482
-0.381727 0.0364986 -0.512227
-0.436027 0.0484045 -0.372108
-0.353686 -0.0886111 -0.577449
-0.239091 0.0625276 -0.555785
-0.480849 -0.0406516 -0.370266
-0.46218 0.021991 -0.369909
-0.40903 0.0631391 -0.411344
-0.476932 -0.0437583 -0.370233
-0.462431 0.02226 -0.373068
-0.463161 0.00425299 -0.362748
-0.359298 0.00364523 -0.476745
-0.433897 0.0339502 -0.341397
-0.461895 0.061014 -0.365733
-0.500511 -0.0858148 -0.580155
-0.424492 -0.103661 -0.571554
-0.361146 0.0059043 -0.480928
-0.43796 0.0581147 -0.386579
-0.461307 0.0168769 -0.385492
-0.453348 -0.0606828 -0.56976
-0.461016 -0.0864022 -0.57019
-0.281232 -0.0369542 -0.582535
-0.425792 -0.106356 -0.571779
-0.36199 -0.00429771 -0.481336
-0.352779 0.0264191 -0.520945
-0.422371 0.0601847 -0.348753
-0.468957 -0.0414876 -0.372541
-0.330509 -0.093994 -0.580057
-0.428136 0.0455358 -0.37667
-0.442303 0.0564809 -0.370097
-0.355395 0.0205687 -0.480971
-0.484033 0.0348555 -0.36786
-0.445103 0.0616594 -0.348192
-0.380583 0.033608 -0.481921
-0.486885 -0.0465871 -0.368825
-0.489079 -0.0383843 -0.370879
-0.47146 0.0303691 -0.361796
-0.462302 0.0043247 -0.360725
-0.481477 -0.0410628 -0.372072
-0.361551 -0.000442801 -0.482911
-0.471228 0.0303699 -0.361681
-0.470119 -0.0331553 -0.38425
-0.380804 0.034026 -0.491682
-0.374381 -0.00644418 -0.438349
-0.474257 0.0257181 -0.369253
-0.366469 -0.00518813 -0.481118
-0.436022 0.0586888 -0.338256
-0.346442 0.0337518 -0.492873
-0.465042 -0.10479 -0.570727
-0.450328 0.0412752 -0.370043
-0.491304 -0.0319662 -0.372217
-0.416917 -0.0901307 -0.572876
-0.385427 -0.00888454 -0.524171
-0.447694 0.0432009 -0.421159
-0.484221 -0.0374709 -0.366518
-0.483959 0.0349207 -0.370767
-0.478615 -0.0439126 -0.367258
-0.47719 -0.043706 -0.369137
-0.414952 0.059255 -0.348506
-0.476 -0.0557347 -0.3787
-0.454603 0.0629753 -0.375156
-0.469958 0.0616998 -0.34135
-0.427961 0.0459768 -0.379958
-0.477089 0.0627351 -0.35103
-0.483568 0.0347858 -0.368875
-0.4728 0.0570131 -0.352613
-0.359244 0.00389907 -0.47902
-0.357625 0.0066894 -0.484671
-0.435664 0.054832 -0.37338
-0.358785 0.00397825 -0.480425
-0.579023 -0.0190179 -0.562853
-0.352813 0.0261465 -0.484388
-0.36525 -0.00401934 -0.477438
-0.393459 0.0419677 -0.525684
-0.475831 0.0627263 -0.342947
-0.347948 0.0223077 -0.480747
-0.476722 0.0621332 -0.350085
-0.512588 0.0607139 -0.421525
-0.448966 0.061133 -0.344914
-0.470356 0.0620987 -0.343495
-0.359275 0.0324397 -0.51136
-0.356735 0.0189328 -0.479192
-0.473181 0.0593925 -0.3666
-0.394075 0.0488702 -0.517952
-0.5786 -0.0186433 -0.562621
-0.386487 0.0105523 -0.522642
-0.491404 -0.0319424 -0.371111
-0.389633 0.0275875 -0.528762
-0.350515 0.0300562 -0.474406
-0.393979 0.0495951 -0.520476
-0.344177 0.0446238 -0.480991
-0.356744 0.0293842 -0.488216
-0.391413 0.0400307 -0.516482
-0.331855 -0.0945911 -0.579341
-0.478745 0.0232572 -0.367785
-0.353766 -0.0879819 -0.577314
-0.376439 -0.0132253 -0.474931
-0.489461 -0.0473201 -0.369145
-0.353437 -0.114459 -0.57448
-0.47575 0.06185 -0.364052
-0.353813 0.0251442 -0.456937
-0.505675 -0.0453887 -0.368289
-0.575089 -0.0181124 -0.562203
-0.563261 0.01192 -0.544226
-0.559942 0.0245286 -0.547945
-0.363988 0.000955587 -0.477394
-0.579713 -0.0153194 -0.562622
-0.453348 0.0603665 -0.368092
-0.490078 0.0620148 -0.364481
-0.505745 -0.032982 -0.372273
-0.358971 -0.00684179 -0.480656
-0.346681 0.0387049 -0.481224
-0.355221 0.0225781 -0.479609
-0.449041 0.0490789 -0.370951
-0.557065 0.0672161 -0.504867
-0.589268 0.0316397 -0.558338
-0.590107 0.028417 -0.558978
-0.593202 -0.0533759 -0.558873
-0.56755 0.0178795 -0.552513
-0.58295 0.0277209 -0.560818
-0.490228 -0.0315904 -0.369313
-0.502069 -0.0463227 -0.368658
-0.480036 0.00752057 -0.360901
-0.457709 0.0583864 -0.367213
-0.445156 0.0487733 -0.371242
-0.496934 -0.0409955 -0.385781
-0.354214 -0.0590794 -0.577951
-0.478882 0.0230403 -0.367693
-0.483115 -0.0258318 -0.361195
-0.596473 -0.0304998 -0.560815
-0.590654 0.0150408 -0.558631
-0.506128 -0.0460252 -0.370854
-0.490297 0.0625906 -0.378963
-0.436651 0.0447708 -0.374411
-0.565594 -0.000208906 -0.565138
-0.344152 0.0359199 -0.480862
-0.589148 0.0322999 -0.55606
-0.565211 -0.000188163 -0.5677
-0.438962 0.0396634 -0.387656
-0.489219 -0.0288245 -0.363936
-0.436774 0.0571934 -0.387097
-0.518666 -0.0423187 -0.364
-0.497863 0.0607823 -0.359603
-0.518461 -0.0424802 -0.364197
-0.505188 0.0628447 -0.365151
-0.580654 -0.0148413 -0.562897
-0.498681 -0.0516239 -0.370542
-0.483589 -0.0268145 -0.568209
-0.580464 -0.0148425 -0.561623
-0.498207 -0.0955843 -0.568179
-0.512627 0.06071 -0.420608
-0.48002 0.00727314 -0.361866
-0.349397 0.0318466 -0.47813
-0.502074 -0.0461058 -0.367736
-0.508359 -0.0312142 -0.38139
-0.463056 0.00437209 -0.362542
-0.557392 -0.000534999 -0.564813
-0.520121 -0.0330211 -0.365931
-0.552528 0.03328 -0.557108
-0.49696 -0.0576593 -0.568199
-0.480184 0.0283822 -0.372348
-0.555138 0.0176791 -0.56334
-0.555832 0.0321281 -0.551163
-0.379343 -0.00959253 -0.529639
-0.556933 0.0669645 -0.502514
-0.558377 -0.0350123 -0.564455
-0.436457 0.0447922 -0.376175
-0.576928 -0.0171023 -0.563034
-0.4834 -0.0262738 -0.363096
-0.464766 -0.0856445 -0.569236
-0.49792 -0.0958704 -0.571415
-0.502137 -0.0463386 -0.368569
-0.463247 0.00451124 -0.362177
-0.480323 -0.0449047 -0.370963
-0.560813 -0.0438831 -0.562361
-0.565884 5.86347e-05 -0.564843
-0.523576 0.0604417 -0.371721
-0.511622 -0.0444432 -0.364859
-0.43594 0.0459525 -0.379415
-0.434213 0.0461128 -0.374684
-0.295533 -0.0599326 -0.582158
-0.478893 0.0230613 -0.366528
-0.6162 -0.0295372 -0.556743
-0.59067 0.0154575 -0.554398
-0.443944 0.0580749 -0.362592
-0.60806 -0.0260555 -0.557608
-0.359399 0.00820082 -0.478516
-0.378195 -0.00854764 -0.531419
-0.506046 -0.0342453 -0.371544
-0.562169 0.0104763 -0.54604
-0.562914 -0.00138922 -0.57635
-0.564382 0.00291316 -0.572568
-0.386792 -0.0110813 -0.532793
-0.462349 0.0224213 -0.37091
-0.575456 -0.017074 -0.562109
-0.538649 -0.043129 -0.366482
-0.5183 0.0624008 -0.339996
-0.454967 0.0335114 -0.378136
-0.507171 -0.0302768 -0.379419
-0.508091 0.0622375 -0.339088
-0.386929 0.0332468 -0.488664
-0.606476 -0.0249363 -0.557863
-0.556165 0.0014585 -0.560883
-0.554889 0.0169821 -0.562824
-0.558496 -0.0358682 -0.563363
-0.5668 0.00182762 -0.562491
-0.558279 -0.0435182 -0.56399
-0.57452 -0.0144552 -0.561369
-0.366063 -0.00973694 -0.478848
-0.431097 0.0563649 -0.388093
-0.490006 0.0620194 -0.362676
-0.443778 0.0573397 -0.367877
-0.541546 -0.0344252 -0.369361
-0.540494 -0.0430471 -0.366348
-0.475113 0.0623177 -0.340946
-0.55865 -0.00057448 -0.567471
-0.541127 -0.0334001 -0.369903
-0.39909 -0.0647624 -0.572313
-0.54149 -0.0338006 -0.37073
-0.520192 -0.0331221 -0.367405
-0.387384 -0.0165828 -0.519605
-0.56318 0.00858491 -0.550024
-0.522483 0.0599173 -0.367872
-0.50447 0.0626902 -0.416446
-0.607581 -0.0264197 -0.558322
-0.53261 0.0614216 -0.346724
-0.621579 -0.00523641 -0.559653
-0.620022 -0.0210905 -0.559337
-0.621716 -0.00543872 -0.559328
-0.392503 0.0493541 -0.527424
-0.387587 0.0317583 -0.481309
-0.522934 -0.0293754 -0.374631
-0.505707 -0.0368816 -0.367558
-0.532636 0.0609443 -0.347268
-0.468562 -0.0412252 -0.371425
-0.419784 0.0479276 -0.384539
-0.452664 0.0352404 -0.378071
-0.462999 0.00430778 -0.364126
-0.453744 0.0287299 -0.381938
-0.54666 0.0605644 -0.375218
-0.546743 0.0607824 -0.37554
-0.546478 0.0607345 -0.375362
-0.518087 -0.0428539 -0.364346
-0.61932 -0.0207643 -0.558405
-0.6316 -0.00525201 -0.559104
-0.387619 0.033006 -0.482754
-0.60662 -0.0253654 -0.558228
-0.514229 -0.0447481 -0.364923
-0.514953 -0.0450065 -0.366852
-0.419331 -0.0894889 -0.571539
-0.530088 -0.0565474 -0.566592
-0.50559 0.0631167 -0.367407
-0.635099 -0.0204469 -0.558106
-0.621997 -0.00598501 -0.559302
-0.618859 -0.0207456 -0.559706
-0.548085 0.0606842 -0.371362
-0.566459 0.00175466 -0.562926
-0.527893 -0.0360187 -0.362192
-0.537787 0.0610025 -0.360766
-0.621598 0.034326 -0.499581
-0.51867 -0.044234 -0.364632
-0.48387 0.034995 -0.371544
-0.617322 -0.0502135 -0.557764
-0.531314 -0.0569749 -0.565324
-0.483621 -0.0372946 -0.361338
-0.556311 0.0686505 -0.503077
-0.461703 0.0611829 -0.365668
-0.469699 -0.0291356 -0.369705
-0.480691 0.0273449 -0.369986
-0.510392 -0.0431004 -0.364808
-0.479861 -0.0445005 -0.370233
-0.513713 0.0631686 -0.342058
-0.546068 0.0633251 -0.336197
-0.467257 0.0302684 -0.360995
-0.622935 0.0386476 -0.516296
-0.481775 -0.0390562 -0.364723
-0.386379 0.0358956 -0.522935
-0.530776 -0.0565605 -0.564878
-0.490479 0.06167 -0.385408
-0.53858 0.0607972 -0.359884
-0.624228 -0.0226661 -0.559349
-0.650674 -0.0476886 -0.547339
-0.622659 0.0346746 -0.457105
-0.487893 0.0312191 -0.380502
-0.616867 -0.0497895 -0.554371
-0.481507 -0.0395495 -0.367354
-0.455077 -0.0620805 -0.571589
-0.536484 -0.0428437 -0.363649
-0.456552 0.0335432 -0.376801
-0.595948 -0.0449823 -0.373305
-0.558281 0.0719637 -0.503078
-0.650934 -0.0477037 -0.548299
-0.528581 -0.0464247 -0.366205
-0.616522 0.0334801 -0.476032
-0.48364 0.0176973 -0.381994
-0.582678 0.0795585 -0.554566
-0.531017 -0.0578637 -0.570658
-0.52107 -0.032335 -0.377198
-0.488632 0.030435 -0.379592
-0.618696 -0.0705051 -0.557087
-0.505943 -0.0462979 -0.371586
-0.487425 -0.0464143 -0.368294
-0.483186 0.0184928 -0.383687
-0.478882 0.0227895 -0.368773
-0.505872 -0.032998 -0.379746
-0.456249 0.0336661 -0.378792
-0.466453 -0.0405919 -0.37528
-0.483116 0.0183561 -0.38462
-0.466814 0.0254608 -0.372473
-0.621246 0.0376997 -0.503487
-0.614774 0.0535996 -0.450154
-0.632267 -0.00457339 -0.559847
-0.479978 0.0284783 -0.374034
-0.606731 -0.0722711 -0.551527
-0.614352 0.0653072 -0.44939
-0.511888 -0.0449373 -0.365014
-0.638516 0.0267269 -0.504257
-0.665818 -0.00339311 -0.554399
-0.523369 0.0601896 -0.370546
-0.653216 -0.0486375 -0.561655
-0.509779 0.0675712 -0.515321
-0.591916 -0.0290479 -0.558352
-0.574656 0.0609872 -0.376515
-0.581359 0.0648487 -0.331075
-0.479212 0.0596467 -0.364594
-0.67659 -0.00308623 -0.556876
-0.508281 0.0580654 -0.377179
-0.620586 0.0683758 -0.433981
-0.480031 0.00724617 -0.360843
-0.483081 -0.0262564 -0.363003
-0.600109 -0.034359 -0.371036
-0.591394 0.063352 -0.364971
-0.503968 0.0635296 -0.426074
-0.613737 0.0686871 -0.436307
-0.536472 -0.0420958 -0.362065
-0.620415 0.0336799 -0.491153
-0.615306 0.0367591 -0.462818
-0.597638 -0.0348917 -0.373809
-0.590897 0.0256539 -0.559247
-0.636204 -0.0199239 -0.560534
-0.466692 -0.0400288 -0.372716
-0.479122 0.0599171 -0.366356
-0.665235 -0.0193936 -0.555598
-0.679306 -0.0188292 -0.555923
-0.643348 0.0375898 -0.503519
-0.596921 -0.0429744 -0.36653
-0.470918 -0.0325012 -0.361843
-0.489666 0.0663974 -0.487724
-0.593348 0.0643724 -0.36051
-0.614085 0.0685588 -0.437064
-0.608447 -0.0621436 -0.553147
-0.597403 -0.0344901 -0.373255
-0.583585 0.0628431 -0.372692
-0.585114 0.0632322 -0.373174
-0.679888 -0.0184953 -0.555657
-0.591491 0.0641594 -0.368706
-0.598089 -0.0353998 -0.373785
-0.540992 -0.044551 -0.370548
-0.589659 0.0324931 -0.559035
-0.623736 0.0292652 -0.492495
-0.480091 0.00744642 -0.359757
-0.62291 0.0296999 -0.492
-0.615146 0.054118 -0.451792
-0.466401 -0.0407354 -0.375482
-0.402793 -0.0637878 -0.573133
-0.539021 0.0606385 -0.359003
-0.624379 0.0532541 -0.432707
-0.611195 -0.0327213 -0.373509
-0.58307 0.0625371 -0.372017
-0.615762 0.0649406 -0.388212
-0.470671 0.0295617 -0.346977
-0.490932 -0.0328187 -0.375835
-0.489799 -0.0475232 -0.369424
-0.581197 0.0646901 -0.328349
-0.620863 0.0643562 -0.38792
-0.635217 0.0687416 -0.42958
-0.627988 0.0532876 -0.429201
-0.603982 0.0662096 -0.346383
-0.608983 -0.0386799 -0.360499
-0.543539 -0.0345569 -0.372485
-0.596122 0.0657625 -0.33189
-0.627277 -0.0141695 -0.557432
-0.614042 0.0683932 -0.435837
-0.648578 0.0382208 -0.454234
-0.5932 -0.0371738 -0.368851
-0.68589 -0.046666 -0.552377
-0.684894 -0.0267552 -0.552656
-0.685634 -0.0468157 -0.552328
-0.593095 -0.037849 -0.370987
-0.483427 -0.0257548 -0.360068
-0.584828 0.0631626 -0.371681
-0.602182 0.0665248 -0.336865
-0.597567 0.0668809 -0.337672
-0.602774 0.0665817 -0.339158
-0.490912 0.0620758 -0.374411
-0.62034 0.0411167 -0.433826
-0.592723 0.0641486 -0.368711
-0.632342 0.0418814 -0.434033
-0.600234 0.0670182 -0.369086
-0.55951 -0.0432268 -0.563646
-0.632364 0.0418541 -0.434669
-0.608068 -0.0733897 -0.557654
-0.664982 -0.00425515 -0.552634
-0.522778 0.0692172 -0.503902
-0.484901 0.0590322 -0.367126
-0.507512 -0.0430961 -0.365781
-0.510314 -0.043003 -0.364905
-0.582557 0.064777 -0.323254
-0.607188 0.0670454 -0.336285
-0.473836 -0.0257511 -0.349701
-0.479078 0.0223038 -0.368838
-0.482642 -0.0268209 -0.365864
-0.485487 -0.034433 -0.36585
-0.603968 0.066629 -0.347097
-0.606023 0.0664131 -0.327505
-0.613838 0.0651153 -0.447225
-0.638901 0.0466764 -0.429677
-0.649644 0.0475742 -0.438078
-0.517704 0.0689401 -0.509982
-0.489559 0.0663055 -0.489831
-0.680474 -0.0181742 -0.555866
-0.672431 -0.00880992 -0.555452
-0.582541 0.0323682 -0.560032
-0.479923 -0.0411033 -0.357416
-0.629082 -0.0300286 -0.363079
-0.513671 0.0621865 -0.351339
-0.476166 0.061493 -0.361924
-0.572826 0.0664687 -0.411784
-0.462631 0.0264382 -0.377515
-0.484098 0.0593205 -0.392781
-0.53553 -0.0438027 -0.363972
-0.484707 0.0589067 -0.388256
-0.593135 0.0627494 -0.3416
-0.630216 0.0656126 -0.39089
-0.629193 -0.02983 -0.362065
-0.653629 0.0389938 -0.464446
-0.63349 0.0424183 -0.42743
-0.631254 0.0672151 -0.398265
-0.661336 0.0399813 -0.488852
-0.629391 0.0371264 -0.424113
-0.633622 0.0299296 -0.507162
-0.58384 0.0320531 -0.558079
-0.453727 0.0349878 -0.373118
-0.641029 0.0441791 -0.423646
-0.649097 0.0400661 -0.451102
-0.638678 0.0420812 -0.446149
-0.586803 0.0785561 -0.583978
-0.680913 -0.0178059 -0.556259
-0.642929 0.0298268 -0.50209
-0.539092 -0.037454 -0.362983
-0.541899 0.0595759 -0.358277
-0.501181 -0.0487847 -0.369515
-0.642789 0.0717739 -0.432802
-0.583086 0.0623991 -0.371126
-0.598578 -0.0420568 -0.365306
-0.488033 0.0544241 -0.376427
-0.580257 0.0639495 -0.324049
-0.545988 0.0617982 -0.329068
-0.583841 0.0289596 -0.559647
-0.570237 -0.0797793 -0.560151
-0.640821 0.0437151 -0.413455
-0.481067 -0.0399972 -0.3701
-0.479848 0.0224105 -0.364036
-0.614877 0.0540684 -0.452103
-0.487672 -0.026861 -0.384186
-0.618658 -0.0712097 -0.55785
-0.638381 0.0416862 -0.431293
-0.471967 0.0304669 -0.360728
-0.637855 0.0424116 -0.430667
-0.488878 -0.027285 -0.380748
-0.453137 0.0603411 -0.36962
-0.684967 -0.0265825 -0.552428
-0.543392 -0.0343353 -0.37136
-0.568872 -0.0798225 -0.561645
-0.541997 0.0603216 -0.364716
-0.675963 -0.0200537 -0.550674
-0.608101 -0.0623031 -0.550813
-0.625462 -0.0146505 -0.558029
-0.555686 0.000786894 -0.562778
-0.604307 0.0666771 -0.351011
-0.56448 -0.0734016 -0.565118
-0.583805 0.0793999 -0.55384
-0.546403 0.0629119 -0.335601
-0.636038 0.0388648 -0.368983
-0.648597 -0.0282007 -0.374047
-0.564429 -0.0730024 -0.562909
-0.568116 -0.0737035 -0.562972
-0.566954 -0.0800008 -0.561355
-0.621653 0.0661688 -0.338779
-0.490834 0.0613671 -0.382972
-0.463306 0.0264086 -0.374114
-0.623073 0.0704484 -0.34355
-0.646757 -0.0240685 -0.377698
-0.647546 -0.00314123 -0.381588
-0.599399 0.067251 -0.367532
-0.643677 0.0426433 -0.464622
-0.648676 -0.00325316 -0.385029
-0.617739 0.0650363 -0.409555
-0.544363 -0.0371581 -0.369951
-0.66636 0.0388196 -0.450212
-0.646319 -0.00282889 -0.379054
-0.59626 -0.0296574 -0.558937
-0.512113 -0.0449681 -0.36494
-0.658679 -0.0364127 -0.36003
-0.646828 0.0361389 -0.365293
-0.64208 0.0689404 -0.34677
-0.633099 -0.0320221 -0.374547
-0.616765 -0.0341992 -0.369108
-0.653376 -0.0322262 -0.361835
-0.542245 0.0607591 -0.363726
-0.630339 0.0671911 -0.396536
-0.645396 0.0388597 -0.496944
-0.634999 0.0676267 -0.404368
-0.509303 0.0672239 -0.515526
-0.651336 -0.00789423 -0.390098
-0.655563 -0.0323071 -0.358452
-0.505933 0.0623713 -0.362047
-0.635091 0.0686628 -0.4315
-0.626042 0.0668669 -0.392084
-0.621216 0.0407568 -0.434657
-0.647168 -0.0241366 -0.372506
-0.630018 -0.0368384 -0.358415
-0.649343 -0.0229634 -0.380633
-0.514567 0.0755434 -0.725711
-0.567585 -0.0725949 -0.557175
-0.554542 0.0673789 -0.46763
-0.606503 -0.021562 -0.559508
-0.559624 -0.0432658 -0.563688
-0.617497 -0.0500198 -0.556796
-0.647168 0.0144668 -0.349013
-0.638151 0.0269045 -0.489488
-0.599022 -0.0438107 -0.366456
-0.638616 0.0266044 -0.502945
-0.664133 0.00104583 -0.347388
-0.663816 0.0140784 -0.350925
-0.635383 0.0385188 -0.367113
-0.543121 0.0606453 -0.367109
-0.526647 0.069447 -0.495256
-0.624137 0.0530862 -0.430981
-0.671021 -0.0154002 -0.554366
-0.453898 -0.0531757 -0.566848
-0.612689 0.0654999 -0.362395
-0.633144 -0.0435112 -0.365635
-0.592489 0.0644043 -0.372107
-0.660869 0.0704158 -0.356046
-0.60909 -0.0389665 -0.362075
-0.565273 -0.0743487 -0.562811
-0.665118 0.0298464 -0.360217
-0.647745 -0.00317048 -0.380934
-0.669229 -0.0312122 -0.361978
-0.55673 0.0658627 -0.447583
-0.755175 -0.0637899 -0.546618
-0.623911 0.0364516 -0.485939
-0.63875 0.0470832 -0.429796
-0.646903 0.0695155 -0.354658
-0.674548 0.0403988 -0.366017
-0.674314 0.0405076 -0.365154
-0.663945 0.014515 -0.349709
-0.637556 -0.041863 -0.360938
-0.586989 0.0162678 -0.556449
-0.671628 0.0542492 -0.357166
-0.754477 -0.0436442 -0.547235
-0.753913 -0.0236435 -0.548524
-0.669722 0.0700637 -0.356577
-0.663833 0.00116058 -0.346218
-0.533259 -0.0563147 -0.565058
-0.669635 0.0696373 -0.354404
-0.535913 0.0618023 -0.357474
-0.754378 -0.0438059 -0.547294
-0.674754 0.0410361 -0.364779
-0.669805 0.0754499 -0.385528
-0.673791 -0.0339797 -0.368514
-0.620139 0.0656516 -0.33453
-0.626581 -0.0111765 -0.54921
-0.552205 0.0685322 -0.470002
-0.631951 -0.0312539 -0.377435
-0.625947 0.0669805 -0.391353
-0.676482 0.0591557 -0.356811
-0.543895 -0.0351972 -0.377425
-0.611082 -0.0333511 -0.373099
-0.731838 0.0443279 -0.492101
-0.753645 -0.0238552 -0.547556
-0.668819 0.0595337 -0.356482
-0.667316 0.0556747 -0.35842
-0.568292 -0.0795951 -0.564218
-0.766163 -0.0692253 -0.549045
-0.668763 -0.0206284 -0.556458
-0.669133 0.0599746 -0.356925
-0.732205 0.044439 -0.494351
-0.674984 0.0689776 -0.358643
-0.631935 0.0651223 -0.385042
-0.638803 0.061569 -0.369722
-0.75567 -0.0644371 -0.549068
-0.6725 -0.0312745 -0.374486
-0.61967 -0.0425069 -0.360778
-0.631686 -0.0394698 -0.35661
-0.66329 0.0699262 -0.348651
-0.611913 0.0661305 -0.371446
-0.646992 0.0142902 -0.35286
-0.734902 0.0431068 -0.486559
-0.681099 0.0628371 -0.357269
-0.741445 -0.000616403 -0.550423
-0.753934 -0.0236799 -0.548959
-0.664019 -0.0186389 -0.555214
-0.641881 0.0342229 -0.361035
-0.676045 0.0618007 -0.357242
-0.672526 0.0565372 -0.358706
-0.66155 -0.0191396 -0.352538
-0.688388 0.0658289 -0.358833
-0.666974 0.0584142 -0.355032
-0.667645 -0.000818849 -0.369502
-0.740356 -0.00783365 -0.551216
-0.735029 0.0410463 -0.482644
-0.561179 -0.0351239 -0.56359
-0.687092 0.0487141 -0.360053
-0.646699 -0.025119 -0.374021
-0.763366 -0.0146561 -0.551172
-0.669835 0.0510846 -0.357715
-0.762293 -0.0203578 -0.546194
-0.678861 0.0544401 -0.359241
-0.688556 0.0576225 -0.358409
-0.668517 -0.0308073 -0.358979
-0.691309 0.0572069 -0.371654
-0.533149 -0.0667646 -0.563945
-0.733037 0.0351588 -0.476336
-0.74129 -0.00160931 -0.551505
-0.679076 0.0537907 -0.358057
-0.676371 0.0517153 -0.354899
-0.75476 -0.0437044 -0.548196
-0.657737 -0.03327 -0.363194
-0.581134 0.0821981 -0.560829
-0.667983 0.0540237 -0.357488
-0.646648 0.0359253 -0.359725
-0.627536 0.0531131 -0.429458
-0.612193 0.0666712 -0.347428
-0.731441 0.042436 -0.433423
-0.663439 0.0700846 -0.349155
-0.631542 -0.0333874 -0.369922
-0.731632 0.0418015 -0.453382
-0.645398 0.0386116 -0.502244
-0.622763 0.0297626 -0.498244
-0.599141 0.0669176 -0.370692
-0.619207 0.069523 -0.378646
-0.691424 0.0567384 -0.369684
-0.687948 0.0649511 -0.339181
-0.62461 0.0389042 -0.470027
-0.646345 0.0382439 -0.490191
-0.632122 0.0652764 -0.387899
-0.637546 0.040823 -0.413224
-0.67516 0.0410265 -0.365369
-0.737287 0.0353492 -0.492497
-0.688196 0.0659461 -0.357533
-0.531217 -0.0666462 -0.564007
-0.681255 0.0603637 -0.361716
-0.762348 -0.0181576 -0.544293
-0.679282 0.0531599 -0.357476
-0.64681 -0.0247996 -0.371815
-0.68729 0.0488696 -0.359659
-0.734027 0.0404699 -0.484288
-0.628182 0.0532814 -0.429326
-0.617243 -0.0501559 -0.556134
-0.529276 -0.0684819 -0.572372
-0.632096 0.0417573 -0.433301
-0.756067 0.0351247 -0.51919
-0.657798 -0.0333318 -0.364362
-0.619868 0.0677912 -0.435152
-0.616045 -0.0297678 -0.557091
-0.556307 0.0669837 -0.500466
-0.740317 -0.00452656 -0.551597
-0.734647 0.0412817 -0.485411
-0.531747 -0.0664582 -0.56634
-0.641491 0.0693482 -0.348132
-0.612927 0.0650269 -0.361281
-0.661581 -0.019082 -0.352783
-0.734809 0.0463883 -0.436478
-0.668207 -0.031113 -0.35954
-0.727404 0.0674474 -0.41683
-0.646998 -0.0243925 -0.375199
-0.726859 0.0445916 -0.412896
-0.560163 0.0668887 -0.484061
-0.534067 -0.0659055 -0.559251
-0.653598 -0.0469233 -0.548277
-0.624363 -0.0137761 -0.558019
-0.729434 0.0443831 -0.425151
-0.732579 0.0458058 -0.428395
-0.672463 0.0437456 -0.37237
-0.768768 -0.0383596 -0.548952
-0.735151 0.0347063 -0.486997
-0.558271 -0.034484 -0.564865
-0.776726 0.0643389 -0.526237
-0.730896 0.0424085 -0.431573
-0.637059 0.0406616 -0.417527
-0.731464 0.0460589 -0.424566
-0.740945 -0.00726408 -0.55129
-0.731257 0.0614323 -0.419137
-0.742806 -0.00708109 -0.550969
-0.652787 -0.0323347 -0.36183
-0.648049 -0.0318663 -0.360452
-0.688351 0.0580072 -0.354609
-0.548302 0.0613966 -0.375246
-0.633777 0.0657234 -0.389963
-0.634433 0.0666014 -0.396159
-0.614375 0.0371043 -0.447162
-0.730571 0.0682072 -0.424138
-0.632113 0.0423179 -0.447086
-0.667817 0.0543258 -0.358315
-0.396903 0.177536 -1.4248
-0.607211 0.066058 -0.348622
-0.702358 0.0603722 -0.35859
-0.624507 -0.0149273 -0.560942
-0.594036 0.0666202 -0.362865
-0.580651 0.0828068 -0.56259
-0.773638 0.0655469 -0.479071
-0.677335 0.0481339 -0.357756
-0.640095 0.0665969 -0.352566
-0.770476 0.0700198 -0.49942
-0.773816 0.0655669 -0.47984
-0.720378 0.0700719 -0.401534
-0.666792 0.0595669 -0.357546
-0.648059 -0.0243577 -0.367601
-0.626207 0.0390418 -0.488476
-0.771686 0.0640273 -0.52417
-0.770877 0.070109 -0.500899
-0.706876 0.0622924 -0.362585
-0.59361 -0.0662066 -0.568355
-0.683234 0.0469194 -0.364738
-0.566402 0.0203604 -0.553258
-0.593652 -0.0674193 -0.568425
-0.617044 -0.0506202 -0.55863
-0.594553 -0.0647274 -0.561827
-0.670816 -0.0257202 -0.36911
-0.603827 -0.0608822 -0.545481
-0.587297 0.0160025 -0.553454
-0.647215 -0.0330927 -0.365514
-0.630894 0.0688423 -0.433576
-0.682575 0.0512605 -0.356236
-0.61722 -0.0335356 -0.36799
-0.624314 -0.0228556 -0.560698
-0.73179 0.0610499 -0.422366
-0.646803 0.0140015 -0.361644
-0.763556 -0.0153773 -0.550562
-0.616256 0.039445 -0.43711
-0.767808 0.0357284 -0.548536
-0.630568 -0.00654251 -0.565966
-0.663413 0.0702593 -0.349859
-0.623593 0.0377994 -0.494405
-0.772022 0.0636898 -0.524192
-0.669021 0.0623277 -0.35998
-0.594846 0.065493 -0.368483
-0.630313 -0.0224689 -0.557399
-0.646754 -5.69172e-05 -0.356295
-0.605537 -0.0639871 -0.561574
-0.593437 -0.064632 -0.562431
-0.776606 0.0729765 -0.528084
-0.769764 -0.0410795 -0.548417
-0.606066 -0.0619632 -0.552424
-0.732886 0.0614502 -0.427065
-0.686001 0.0667701 -0.33399
-0.612478 0.0644055 -0.354947
-0.646445 -0.0296161 -0.366094
-0.77659 0.0642869 -0.528656
-0.656257 0.03735 -0.350968
-0.605276 -0.0607551 -0.548323
-0.703201 0.060735 -0.366198
-0.67649 0.0598869 -0.358119
-0.637335 0.0361243 -0.469258
-0.776653 0.0653546 -0.476582
-0.75099 -0.0642427 -0.548032
-0.665635 0.067588 -0.354721
-0.681292 0.0617666 -0.362601
-0.769322 -0.0355236 -0.550208
-0.657415 -0.0324961 -0.360847
-0.660681 -0.0354523 -0.360388
-0.67931 0.0629629 -0.357804
-0.628164 -0.0158752 -0.554912
-0.60175 -0.0344469 -0.376244
-0.626265 -0.0178583 -0.559604
-0.775103 0.0656941 -0.456332
-0.623115 0.038051 -0.501195
-0.712218 0.0701334 -0.330703
-0.696102 0.0650597 -0.333389
-0.647454 -0.026414 -0.357802
-0.691331 0.0570706 -0.370357
-0.617029 -0.0340402 -0.369762
-0.770115 0.070814 -0.519095
-0.675818 0.0681486 -0.356164
-0.623239 0.0378861 -0.492357
-0.768329 0.0351369 -0.548889
-0.585405 -0.064784 -0.56457
-0.624765 -0.0230236 -0.560631
-0.687059 0.0485253 -0.362132
-0.660425 -0.0356751 -0.360595
-0.774788 0.0675558 -0.477792
-0.655288 -0.0332996 -0.362953
-0.703296 0.0609666 -0.369343
-0.676295 0.0472654 -0.358284
-0.653269 0.038501 -0.348416
-0.595394 -0.04294 -0.370101
-0.670319 0.0623093 -0.356362
-0.75107 -0.0646366 -0.549505
-0.619778 -0.0427007 -0.360809
-0.611021 -0.0336641 -0.374447
-0.668779 0.0621112 -0.35786
-0.684928 -0.0269626 -0.552355
-0.687877 -0.0342359 -0.720648
-0.64286 0.0669765 -0.356331
-0.773888 0.0716749 -0.505058
-0.717823 0.072562 -0.387036
-0.71805 0.0726409 -0.388458
-0.770365 0.0708112 -0.518567
-0.772986 0.0648623 -0.535236
-0.814301 0.068532 -0.478831
-0.620541 0.0409897 -0.433327
-0.620672 0.0408414 -0.434858
-0.776879 0.0671246 -0.482415
-0.827147 0.0655866 -0.536645
-0.703099 0.0606837 -0.36418
-0.593453 -0.0644372 -0.564164
-0.622697 0.0298135 -0.491475
-0.61734 -0.0501014 -0.556078
-0.717402 0.0690593 -0.393323
-0.774938 0.0659038 -0.483939
-0.825453 0.0657097 -0.532127
-0.649663 0.0690466 -0.365736
-0.681136 0.0596736 -0.35645
