ply
format ascii 1.0
comment Reconstruct SLAM ply output
element vertex 1747
property float x
property float y
property float z
end_header
5.531326 0.903307 2.598327
4.050286 0.739430 1.188349
5.384297 1.770443 2.697667
5.312348 0.963024 2.950035
5.469076 1.512257 2.642385
5.437708 1.772776 3.165167
5.482935 0.922524 2.725340
5.578831 1.539762 2.923383
5.140908 0.902654 3.302356
3.906852 0.834310 1.719985
5.331252 0.793610 2.983485
5.211424 0.788263 3.273975
4.040069 0.910909 1.242348
4.100740 0.494559 3.061354
4.459708 0.233223 0.845874
5.040724 0.778099 1.898903
5.687062 1.710769 1.681040
4.047240 1.423949 1.217937
5.197906 0.780122 2.046386
5.372298 1.747703 2.969877
3.947811 0.922543 1.696855
5.686885 0.965508 1.861129
5.699715 1.276700 1.714863
4.059312 1.797874 1.215513
5.673106 2.142304 1.658953
4.520937 0.643248 0.242462
4.144854 0.507322 1.567236
5.696887 1.202013 1.955012
5.230943 0.926047 2.857386
5.539966 0.799357 2.007527
5.074281 0.451411 1.962578
4.513562 1.144812 0.311887
4.726189 0.407587 1.738017
4.763086 0.661897 2.090316
5.495894 1.551337 2.813568
4.578475 1.261777 1.173988
4.279703 0.516455 1.505798
4.514798 1.902221 0.825848
4.978304 0.281952 1.351795
5.668757 1.177071 1.771263
4.757941 0.369669 2.097377
5.423750 1.784152 3.005578
3.839683 1.465142 0.982964
5.420555 1.441440 2.678442
4.753843 0.627886 2.894707
5.836427 1.568478 2.472018
5.544871 2.090131 2.516631
5.649921 1.244402 3.260089
5.008666 0.265075 0.431519
4.503189 0.645873 0.308749
4.011652 0.741027 0.924321
5.372085 0.883002 1.783187
5.506042 2.081237 2.545043
5.524145 2.081895 3.311748
5.560677 2.163867 2.823252
5.407857 1.434341 2.971910
4.503174 1.406007 0.352992
5.426697 1.419317 2.526615
5.083066 2.101825 2.676257
3.891039 1.337546 1.001839
5.385073 0.785538 2.185762
5.395900 1.784381 3.251631
5.324768 2.049034 2.506734
4.783900 0.930239 2.949046
4.740737 0.478086 1.993155
4.723081 0.633887 1.893276
4.749215 0.323365 1.994812
5.280749 0.304200 1.305455
4.506700 1.379976 0.330415
5.574608 1.533183 3.033407
5.171672 0.777628 3.157695
4.280190 0.909873 1.450484
4.287837 0.912967 1.463987
4.291279 0.517760 1.509572
3.801000 1.133320 1.279645
4.359932 1.170075 1.464588
5.696278 1.013338 2.483845
3.955507 1.694287 1.287470
4.102737 0.649058 3.092596
5.160010 0.887799 3.300165
4.514521 0.640149 0.245599
4.969248 0.200328 1.606358
5.580089 1.563435 3.209917
5.362305 0.779684 3.270464
3.911287 0.982423 1.364257
5.478431 1.477003 2.475807
3.592332 0.299170 0.699133
4.073883 0.756591 1.243422
5.442639 1.436848 2.980011
4.753515 0.477712 1.896926
5.707461 1.974843 2.448988
5.565382 1.449116 2.074931
4.020581 0.781385 0.849984
4.561156 0.752461 3.136753
4.770388 0.183255 1.414279
5.411061 1.774149 3.103526
4.090871 0.675262 3.094210
5.545866 1.215632 2.116157
4.026039 0.736543 0.939829
5.409665 1.771431 3.459866
5.226889 0.889792 2.749672
4.611128 0.637140 3.149366
5.436415 2.016476 2.728068
3.942240 0.977013 1.290547
4.011724 0.774403 0.850017
4.910942 0.274962 0.459442
5.417708 2.047048 3.066073
5.396340 0.902895 2.574748
5.586766 0.895772 2.420291
3.874633 1.334073 1.050620
3.865904 1.292650 1.007283
4.057610 1.609426 1.066984
3.875263 1.297731 1.005321
3.986976 0.912390 1.375009
5.501946 1.447199 2.993759
5.288726 0.344053 1.289503
5.403913 1.577638 2.444975
5.601801 1.399696 2.431554
5.412681 1.981979 2.452754
5.488771 2.079331 2.611452
5.446685 1.433518 2.754282
5.225096 0.820309 2.881056
4.052768 0.914436 0.906238
5.426621 1.788531 3.261214
5.536805 1.410301 2.008999
5.241188 0.782106 2.599345
5.483393 2.004836 2.610318
3.998905 0.923620 0.902520
4.927662 0.238792 1.472178
5.665426 1.512019 2.549571
5.590941 1.532805 2.779636
5.753128 1.287163 1.770117
4.061951 1.611528 1.070439
4.119886 0.675713 1.501039
5.570833 1.698505 2.014685
5.392145 1.773508 2.829414
5.483295 0.946216 2.829410
5.395970 1.774383 2.832263
4.621620 0.923220 3.056228
5.117953 0.249479 1.351046
5.398888 1.771239 3.032480
5.697810 1.261978 2.072928
4.197001 0.493585 2.627776
5.461516 2.008407 3.121006
3.991765 0.912530 1.359103
5.710795 1.128594 2.615453
4.230403 0.806799 1.462110
5.411640 0.767203 2.477064
5.796314 1.177352 2.048925
5.480647 0.820230 2.388034
5.423165 2.068267 2.608706
4.585509 0.032348 2.093454
5.346345 0.926362 2.707685
5.541100 1.722608 2.017821
5.656544 1.171013 2.001881
5.587395 1.455659 3.218179
5.679909 1.169400 2.000538
5.282961 0.825371 2.844258
5.032724 1.714769 2.828101
5.613687 1.227039 1.949224
5.466421 2.049987 3.216019
5.634489 1.561313 2.826566
5.050237 0.780591 1.900808
3.949966 0.636330 1.659953
5.190482 0.927243 2.853035
5.689111 0.776340 2.078777
3.955999 0.878315 1.331640
3.748098 1.363746 1.370989
5.665663 2.141677 0.142786
5.629525 1.402828 2.431337
4.510004 0.160024 1.437418
5.479356 0.806396 2.008679
5.468353 2.124572 2.614079
5.485261 1.248819 2.018336
5.663844 1.525809 2.558674
4.839113 0.955296 2.736204
5.070770 0.826213 2.848643
5.322851 0.770340 2.625988
4.768471 0.498716 2.084749
5.672058 2.145886 0.143807
4.578579 0.548340 0.841219
4.240373 0.688282 1.476995
4.752909 0.438828 1.743062
4.868555 0.626592 1.913854
5.577835 1.614544 2.456571
5.465276 2.080502 2.627779
5.483898 1.443867 2.469099
5.672281 1.159936 1.988611
4.808421 0.230830 1.163336
4.723785 0.329008 1.989218
4.759470 0.324140 1.989741
5.580525 1.644332 2.063816
5.693717 1.146526 1.855191
5.396699 1.754763 3.176845
3.847636 1.188005 1.094290
3.933747 0.981579 1.693666
4.636166 0.642323 1.883526
4.797882 0.328115 1.980546
4.236565 0.979362 1.424224
4.699517 0.333391 1.979682
4.860520 0.281445 0.486798
4.573085 0.116607 1.635748
4.881089 0.060495 1.658760
4.655888 1.309039 -0.175262
4.639538 0.655532 -0.086645
4.769317 0.477137 1.901821
4.559888 0.976268 1.772829
4.585381 0.630870 0.335978
4.892361 0.698491 -0.326444
4.445192 0.577392 -0.066460
5.241173 2.133292 2.685145
5.364057 0.912227 2.876899
5.304938 0.836942 2.339479
5.562125 1.151066 2.462301
4.697247 0.638552 1.889611
5.487716 0.796245 2.523049
4.034431 0.741231 0.950618
3.863714 1.335449 1.008160
4.089122 0.836186 1.267990
4.508909 1.353571 0.479952
5.258077 0.790419 2.206802
5.703023 1.242890 2.531060
5.720159 1.038139 2.575064
4.762589 0.634111 1.989972
4.229521 0.108816 0.890664
4.044144 0.392207 0.095516
5.694244 0.882466 2.470202
4.277163 0.509694 1.505852
5.686640 1.047394 2.576083
4.814468 0.474038 1.906677
3.846950 1.471584 0.983861
4.391395 0.079873 1.252960
5.648493 2.139331 0.144692
4.509396 1.678600 0.689726
5.428533 0.877231 2.415897
4.553249 0.529851 0.842585
4.012172 0.163357 0.566204
3.999887 1.446347 0.880204
4.512030 0.950114 0.264672
3.850313 1.265748 -0.387764
3.974918 1.419221 0.881286
3.948722 1.862893 -0.158400
3.912592 1.999209 -0.227513
3.898341 0.774088 0.866069
4.503717 1.265222 0.088101
3.923475 1.197609 -0.414840
4.195597 1.258026 -0.335704
4.476637 0.144078 -0.083861
3.807173 0.539784 -0.111623
3.962278 1.645396 -0.163537
3.963498 2.003532 -0.245932
3.901830 0.844781 1.360325
3.995592 1.176935 -0.256037
4.019126 1.114444 -0.268635
4.145912 0.906215 1.380373
4.610756 1.309346 -0.157283
5.302588 0.433219 1.251890
4.509762 1.569331 0.642400
5.645395 1.847675 1.997482
4.552164 1.155573 -0.136063
3.930109 1.190982 -0.414455
5.681532 1.174695 2.494894
5.055084 0.891690 -0.760565
4.544133 0.020111 2.074885
3.978294 1.470007 -0.175466
4.773610 0.811930 -0.702599
4.766190 0.021822 1.018036
4.504362 1.677940 0.640989
5.033216 0.889128 -0.857482
4.851169 0.282098 0.479584
4.235654 0.857976 -0.317705
3.942155 1.118147 -0.336952
5.446064 1.567877 -0.392469
4.503776 1.145138 -0.136002
3.995481 1.506788 -0.178535
5.415451 0.936806 1.992882
4.085217 0.404033 0.004429
4.754638 0.478573 1.991865
5.471905 0.843020 2.345911
5.460365 0.872840 2.382846
5.420864 1.538559 2.488741
3.947543 1.389982 -0.215311
5.654668 1.566068 2.686315
5.019895 0.889364 -0.846632
4.055014 1.194437 -0.279283
3.844821 1.190179 1.089369
4.008645 1.405888 -0.237542
4.246295 0.375733 -0.036708
4.752428 0.372562 2.079440
3.942415 1.675806 -0.164217
4.737366 0.296161 0.010199
5.411788 0.476038 0.571812
4.884009 0.168128 1.421243
3.920830 0.975988 1.287200
3.734154 1.164171 1.298913
3.916361 1.803602 -0.157128
3.968070 1.412958 0.883341
3.937655 2.020921 -0.211383
4.393103 0.061149 1.390020
4.468019 0.647360 -0.075423
3.999820 1.109987 -0.256475
3.954134 1.691136 1.287652
3.956467 0.982697 1.699866
3.845908 1.261222 -0.385096
3.812494 1.167108 1.303780
3.916942 1.200712 -0.413144
3.941479 1.183596 1.313100
4.137742 0.372868 -0.012781
3.932947 0.918823 1.319929
5.612493 0.886314 2.451824
4.540027 0.678406 0.841921
5.568908 1.733436 2.046428
5.697208 2.153652 0.149335
4.220093 0.550119 1.529077
4.449177 1.294755 -0.121222
5.335208 1.543002 -0.344157
5.452826 2.026174 2.611572
4.512879 0.961239 0.088136
5.652702 1.620783 2.492947
5.387526 0.485647 0.581317
4.183624 1.224086 -0.218341
3.929433 1.123399 -0.336864
4.882323 1.472298 -0.222767
5.389041 1.494832 -0.365183
5.549264 1.491975 2.517403
4.505974 1.085350 0.201241
3.691282 1.163250 1.293776
4.689176 0.509537 -0.761699
3.971500 1.931179 -0.366307
4.056235 1.218950 -0.369460
3.965700 1.259286 -0.395155
4.782708 0.292071 0.477286
4.419792 0.884398 -0.151256
5.551306 1.421190 2.057928
5.495071 2.083524 2.642969
4.701447 0.803597 -0.625528
3.986858 1.266782 -0.385117
4.945669 0.886260 -0.874379
4.526826 0.878740 -0.137236
3.925914 1.561851 -0.152311
4.247135 0.629376 -0.031356
3.979980 1.408736 1.661346
4.596265 1.273137 -0.174545
3.967841 1.421106 0.880865
4.303914 0.812972 1.450498
4.794959 0.316278 2.001627
4.522043 0.138725 -0.096851
5.560369 1.410810 2.015522
4.699000 0.802957 -0.621938
5.633528 0.752844 2.661264
4.785541 0.760547 -0.840300
5.430944 0.618115 0.725107
5.138621 0.245196 1.343671
3.933733 0.919286 -0.158974
4.008765 0.277115 0.746714
3.947324 0.925502 -0.158188
4.509681 1.087372 0.197540
4.098775 1.196271 -0.385723
4.014435 0.912268 1.313269
4.952854 0.174982 1.282026
4.164133 1.420567 1.677036
4.015313 1.400235 1.216574
5.708984 1.167079 2.129541
4.877448 0.184068 1.281617
5.156352 0.956754 -1.032068
4.014143 0.649083 0.938102
3.957996 1.846448 -0.218916
4.503611 0.071855 2.100358
4.510515 1.400822 0.349745
3.875654 1.340685 1.003784
3.865675 1.274920 -0.361736
5.037738 1.498657 -0.245007
4.507465 1.141420 0.304893
4.787563 0.492954 2.088714
5.618001 1.147237 2.457410
4.669950 0.622103 -0.923467
4.435556 0.338456 0.070365
4.071830 0.142275 0.197483
5.107858 0.443110 0.716634
3.861301 0.164726 1.418790
3.913657 0.682533 1.349721
4.359381 0.657842 -0.048249
4.033836 1.406427 1.223937
4.515337 1.270027 0.143126
3.732447 1.204371 1.258844
4.504253 1.271932 0.138562
5.276791 0.823197 -0.862065
3.985338 1.347182 -0.230479
4.009084 0.922412 -0.176791
4.150824 1.059246 1.577922
3.955754 0.892831 -0.151313
3.905952 0.643505 1.625834
5.669531 1.572374 2.430701
5.304381 0.625626 0.720663
5.412544 0.878799 -0.695185
4.500701 1.276745 0.130416
4.700334 0.799978 -0.637633
4.667908 0.618312 -0.915071
3.972854 1.103147 -0.166947
3.989331 1.468657 -0.178008
5.505939 0.771052 2.227932
4.910699 0.174267 1.278448
4.953446 0.641773 0.591858
5.537018 1.563460 1.657306
3.943460 1.886545 -0.156691
3.941770 1.074431 -0.150294
4.032879 0.919622 1.236192
4.771849 0.796027 -0.749527
4.862171 0.767226 -0.803670
4.748484 0.632427 1.994013
3.986987 1.931544 -0.363153
4.046150 2.029445 -0.304412
5.468895 1.686447 1.899755
4.226899 1.552437 1.234038
3.956566 1.393685 1.210598
4.503942 1.566569 0.645544
5.127373 0.448459 0.725860
4.208168 0.978808 1.382559
4.166854 0.919319 -0.155504
4.513057 1.570191 0.703455
3.909625 1.397998 1.654081
4.779911 0.808218 -0.705810
3.944519 0.816016 -0.160098
4.672574 0.462343 -0.918142
3.941868 0.819035 -0.159696
5.370455 0.987638 -0.862549
4.507647 1.267435 0.424353
5.251942 0.961754 -1.219749
5.438775 0.975763 -1.459723
4.945778 0.796513 -1.027882
4.934000 0.102765 -1.272537
4.076557 1.204122 1.564704
4.654015 0.607875 0.902817
4.907756 0.833216 -0.552025
4.473778 0.328656 1.360881
4.871413 0.756472 -1.074068
5.138309 0.963961 -1.028005
5.176035 0.869756 -0.244153
4.723803 0.723359 -0.491398
4.859179 0.769461 -1.142811
4.000680 0.344828 0.783537
4.850651 0.761010 -1.054582
4.849848 0.278805 -0.004710
5.658678 1.573660 1.683642
4.015693 1.023264 0.872825
4.490401 0.087582 -0.628412
3.922242 1.332368 -0.219454
3.591609 0.287760 0.697939
3.772674 1.300927 -0.353407
4.666114 0.616045 -1.014509
4.929205 0.775151 -1.200756
3.915295 1.094880 -0.115627
5.565474 1.699352 1.907682
4.169095 0.984522 1.568394
5.584372 1.119368 -1.526951
5.115447 0.440014 0.719028
4.677243 0.463254 -1.014530
3.987367 1.371127 0.881677
4.310596 1.231965 1.402736
5.257978 0.870826 -1.214725
5.155547 0.630869 0.704893
3.950202 0.520832 -0.162851
3.843407 1.471962 0.982511
4.071311 0.912560 0.912433
3.941509 0.816005 -0.159925
2.941227 0.823051 0.683756
4.661009 0.841592 -0.179812
4.624732 0.834956 -0.182887
4.917688 0.649523 0.608643
5.139805 0.888000 -0.620649
3.868062 1.395408 1.615482
5.042166 0.875244 -0.225087
4.419475 0.600369 -0.063832
5.379712 1.527241 -0.285401
4.410320 1.241176 1.436327
3.908315 1.217110 -0.401700
4.396807 0.047859 1.258612
3.939397 1.453684 1.081795
4.033238 0.769793 0.852143
4.151770 1.528153 1.228410
4.951493 0.113821 -1.280021
3.850766 1.195595 1.089406
4.833828 0.184226 1.421093
5.040753 0.890519 -0.758126
4.759047 0.877890 -0.695750
3.931603 1.990309 -0.209117
3.945102 0.520675 -0.161847
3.935852 1.556144 -0.214934
4.686781 0.616638 -0.760539
4.143065 0.621894 -0.029393
4.484113 0.088650 -0.759944
3.583956 0.234434 0.698287
4.516641 1.709744 0.518686
4.503887 1.396557 0.286819
4.941193 0.272599 1.694423
4.909389 0.731794 -1.345016
5.455106 0.219302 -0.771298
4.981185 0.843351 -0.866736
4.658415 0.467779 -0.998381
4.520095 1.273062 0.136788
4.757383 0.221611 1.026165
4.057013 0.398011 0.090653
4.702172 0.969594 -0.134564
3.925563 1.058560 -0.215245
4.914705 0.161400 0.793666
5.169447 0.889763 -0.623657
4.669826 0.618723 -0.918142
3.908522 1.850735 -0.210188
4.499629 1.360458 0.110184
5.386957 0.489035 0.588497
4.507523 0.957173 0.086726
3.989097 1.116839 -0.238871
3.968940 1.411224 0.882847
4.191619 0.252003 -1.208517
4.541509 1.311115 -0.129099
4.642972 0.751987 -1.283212
4.215444 1.558948 1.229487
3.934767 1.117533 -0.332646
4.062960 1.600107 -1.173243
4.268501 0.358981 1.221651
5.356418 1.006973 -0.866055
4.801630 0.288011 0.453909
5.337762 0.945879 -1.365199
4.507177 1.286376 0.213646
4.553904 1.462484 0.598851
4.671854 0.466787 -1.010429
3.990139 1.386606 0.868820
4.507504 1.240518 0.441857
3.954072 0.928106 -0.226408
4.072007 1.601255 -1.168263
4.630134 1.319561 -0.139978
5.604209 1.111984 -1.556425
5.014914 0.890295 -0.905419
5.434752 0.976434 -1.453944
5.671611 1.568675 1.678719
5.550890 1.698279 2.006897
4.514781 1.681830 0.642804
5.245964 0.855493 -0.245031
5.566999 1.549425 1.786353
4.586911 0.719984 -1.330405
5.581370 1.050926 -0.673729
4.011404 0.996139 0.873257
4.667446 0.617829 -1.010942
4.084564 1.035602 1.378908
3.947082 1.849400 -0.219417
4.971844 0.122171 -1.289327
4.510396 1.276450 0.333919
4.097365 0.436105 -0.367783
4.506956 0.965744 0.119784
4.284937 0.979456 1.596532
4.952399 0.802363 -1.016629
3.906638 1.326332 0.900570
4.335538 1.326576 -1.202171
4.319730 0.751585 0.895566
3.912122 1.058492 -0.214457
4.440866 0.069756 1.401205
3.849963 1.470502 0.985070
4.498734 1.704167 0.280883
4.507922 0.973984 -0.117732
4.573103 0.661528 0.845207
4.157584 1.128792 -1.330185
4.272590 0.509465 -1.397059
4.282943 1.456177 -1.145598
5.318339 0.672174 -0.603780
4.456133 0.914475 -1.289556
3.881548 1.575364 -1.121504
4.152557 1.300006 -0.183577
3.955943 1.206702 -0.222030
4.096159 1.278349 -0.174271
5.318191 0.796825 1.654404
5.111530 0.903182 -1.136404
4.844355 0.054824 0.501918
4.258820 0.932424 -1.233398
5.417268 0.792771 1.674961
4.725446 0.752142 -1.317219
4.757941 0.791311 -0.749740
5.643961 1.239572 -0.901825
5.379927 0.221598 -0.762927
5.528435 1.276191 -0.965551
4.520137 0.225319 0.887074
4.711209 0.800749 -0.633483
5.276675 0.955655 -1.217785
5.217690 1.101930 -1.442422
4.512462 1.710859 0.518055
4.505926 1.359810 0.108201
3.964723 1.646125 -0.163742
4.285638 0.179762 -0.069612
4.331378 1.478341 -1.182643
4.162025 1.125809 -1.321037
5.035485 0.194626 1.624473
5.297546 1.103865 -0.873063
4.202281 1.030474 1.421047
4.127628 1.122061 -1.314978
5.340103 0.232401 -0.756147
3.891832 1.800644 -0.158680
4.519659 1.712420 0.726244
3.904810 0.945984 -0.221521
5.630932 0.926124 1.692657
4.052877 0.394555 0.089124
4.080141 1.603659 -1.193418
3.930795 1.718732 -0.208867
4.970117 0.849323 -0.347214
4.274104 0.505196 -1.400174
3.977424 0.265331 1.081495
4.231070 0.612449 -1.424925
3.971921 1.458627 1.087766
4.582268 0.582660 -1.569216
4.169832 1.610334 -1.214963
4.665130 0.462599 -1.014934
5.150066 0.449055 0.728724
4.013897 0.262022 1.099073
4.522550 1.428475 0.466787
5.735846 1.595654 1.839805
5.582055 1.243961 -0.870581
5.615537 1.244701 -0.915276
4.007477 1.596829 -1.172102
5.503921 1.744643 -1.757157
3.847529 0.985068 1.319659
4.633483 1.580771 -1.246429
4.095199 0.924441 0.883433
4.487325 1.832346 -0.081367
5.493142 1.743330 -1.757510
4.281900 1.457772 -1.141808
4.347632 0.982716 1.448750
4.295141 0.266069 -1.377411
5.619097 0.906147 -0.694886
5.629341 1.172386 -0.669593
4.077328 1.803768 1.215698
4.945280 0.876647 -1.009831
4.171670 1.134901 -1.340697
5.670295 0.907270 -0.704747
4.504678 1.516010 0.115446
4.606517 0.088694 -1.364458
5.371840 0.995582 -0.865705
4.415766 0.906723 -1.384410
4.039175 0.393079 0.086607
4.715891 0.848447 -0.332963
3.991889 0.665197 -0.027700
5.636183 0.916901 -0.713271
5.467037 0.599955 0.610413
4.478244 0.763099 -1.302602
3.899452 0.894735 1.042283
4.403251 1.029320 -1.484487
4.090958 1.246478 -1.306709
4.098202 1.249238 -1.310120
3.928295 1.061179 -0.215776
3.904420 1.265655 -0.215420
3.844528 1.117634 -0.146928
4.652992 0.895331 -0.484346
3.941504 1.116580 -0.338782
3.994250 0.670648 -0.034493
3.936595 1.221237 -0.407877
3.935415 0.761620 -0.128650
4.482824 0.906955 0.885670
5.006172 0.772395 -0.933641
4.789562 0.216996 1.024098
4.317292 1.193260 -1.321414
4.107418 0.211583 -1.478408
4.152837 0.224318 -1.309985
5.607887 1.272959 -0.747482
5.355596 0.892105 -0.439329
4.057888 0.387494 -0.389983
5.053746 0.631516 1.115675
4.047977 0.386763 -0.389079
4.895226 0.800068 -1.018257
4.152616 0.225618 -1.310899
4.317428 1.447528 -1.156669
4.770264 0.752848 -0.825276
4.710884 0.840305 -1.624308
4.599440 0.579831 -1.576132
4.568842 0.222898 1.354943
4.827428 0.209250 1.025575
3.927585 1.553867 -0.212716
4.507182 0.644053 0.247249
5.581020 1.260542 -0.733816
4.660196 0.745052 -1.253979
5.679815 1.552753 1.802203
4.000024 0.265678 1.094767
5.346009 0.944204 -1.365760
4.452407 1.189734 -1.351326
5.307479 0.832211 -1.381280
4.554895 0.748676 -1.308736
5.605279 0.896122 -0.685983
5.234571 0.943981 0.286951
4.516235 1.579217 0.244289
4.023939 1.385258 1.219344
3.797355 1.133430 0.984483
4.494599 1.510664 0.078044
4.497908 1.282750 0.515892
4.172730 0.385168 -1.268742
4.691476 0.463720 -1.009834
3.968242 1.885349 -0.208318
3.887411 1.666273 1.269000
4.942711 0.821129 -0.469879
5.243308 0.922164 -1.825253
4.008514 0.950657 -0.157252
4.214632 0.221730 -1.218423
5.459695 1.342823 -1.755741
4.121728 0.156145 0.650357
5.529239 1.490821 -2.118465
4.308380 0.257757 -1.379366
4.332244 0.274743 0.552706
5.590934 1.277951 -0.712162
5.254780 0.976980 -1.419564
5.068513 0.850456 -1.924573
4.109860 0.210857 -1.478931
5.068308 0.847994 -1.925586
4.557334 1.386445 -0.093518
4.911171 0.756457 -1.892980
4.498529 1.314696 -0.122439
5.230016 0.911039 -1.846645
4.164851 0.761293 -0.327955
3.865306 1.298240 -0.361274
5.097028 0.956499 -1.171058
3.730269 0.543526 -0.230412
3.056608 0.934424 -0.227424
3.579081 0.214630 0.760356
5.486542 1.255049 -2.150929
5.557426 1.492086 -2.126338
4.735644 1.591643 -1.279138
4.498930 0.903540 1.004562
4.098075 0.504261 -0.394113
5.017575 0.722645 -0.150633
4.979778 0.886908 -0.995418
4.500943 1.358504 0.038381
3.929975 1.881275 -0.208915
4.977358 0.835456 -0.839672
4.280085 1.457856 -1.141285
4.409568 0.905376 -1.379762
4.343852 1.044042 -1.259411
4.499589 1.853318 0.790846
4.414696 1.055518 -1.362995
4.418089 0.918997 0.864359
4.503714 0.918296 0.880925
4.388780 0.907361 -1.398336
4.041952 0.370751 -0.393315
4.330683 1.441828 -0.224130
4.513513 1.388220 0.340005
5.567839 1.490724 -2.126220
4.520650 1.859356 0.784672
5.616921 1.273617 -0.745804
3.924298 1.717853 -0.208831
5.045975 0.631407 1.121093
4.498136 1.511735 0.029223
5.451553 1.527047 -0.327234
4.907299 0.861762 -0.526909
5.540598 1.300062 -0.682377
4.668819 0.751909 -1.741946
5.174614 0.623253 1.150568
4.658886 0.755255 -1.740742
4.771561 0.807942 -0.706136
5.554790 1.275864 -0.666598
4.805632 0.751944 -1.810018
5.019089 0.877164 -0.509620
4.493191 0.913049 0.881169
4.345668 0.117501 0.580258
5.598597 1.276492 -1.978923
4.844200 0.764151 -2.031282
5.359374 0.158964 -0.766138
4.503961 1.269551 0.187748
4.980682 0.972279 -1.958115
5.415780 1.053349 -1.857459
4.464974 1.829531 -0.084248
4.024220 0.393044 -1.644687
5.436925 1.050237 -1.857581
4.428164 0.977378 0.867756
4.485731 1.892801 0.820637
5.694412 1.219563 -1.752586
4.358483 0.115851 0.590790
5.225320 0.867520 -0.237405
4.483791 1.512687 0.116488
4.947091 0.844252 -0.485131
4.785406 0.220602 0.958701
4.705526 0.292301 0.461798
5.247757 0.905067 -2.181202
4.962125 0.971912 -1.953159
5.634727 1.006359 -0.435593
5.229711 0.869845 -0.234729
4.947878 0.755572 -1.136002
4.056320 0.276901 -1.534287
4.050693 0.638740 -0.082402
4.508140 1.347697 0.357626
4.874002 0.064040 -1.033532
4.502372 1.513278 0.025228
4.977025 0.701538 -0.402701
5.539621 1.197703 -1.739520
5.426798 1.539130 -0.408759
4.183204 0.371314 -1.676871
5.594917 0.904216 -2.073919
5.392059 0.483568 0.570917
5.341466 0.914391 -0.408454
5.491825 1.625302 -1.667258
4.929463 0.861485 -2.190709
5.492625 1.438559 -2.304247
5.502991 1.144826 -2.040888
5.176287 0.947302 -2.263658
4.800562 0.747919 -1.810979
5.140387 0.949423 -2.260126
4.715135 0.756584 -1.326124
5.502316 1.257399 -2.162221
4.832760 0.766415 -2.032755
4.953328 0.883943 -1.696514
5.493241 1.731738 -1.752923
5.261473 0.926196 -1.816383
4.490377 0.906608 -1.389909
5.566126 1.130576 -2.101345
5.486572 1.341495 -2.272188
5.092627 0.949222 -2.249091
5.403889 1.257118 -2.148186
4.281367 1.042020 -1.258024
6.754999 0.489113 1.385582
5.547552 1.661548 -1.556792
4.756182 0.756369 -2.097020
4.992653 0.986253 -2.046510
5.005588 0.979642 -2.051271
4.966692 0.867488 -2.192190
5.464125 1.254767 -2.388469
4.996046 0.952678 -1.098037
5.470182 1.257244 -2.464286
4.722402 0.108641 -0.759241
5.097550 0.862567 -0.382158
3.993048 0.669833 -0.032741
4.076156 1.601887 -1.178081
5.434031 1.343257 -2.278030
4.033652 1.596492 -1.184897
5.303060 1.335667 -2.262916
5.038435 0.863407 -1.874605
5.485035 1.343572 -2.278015
5.021404 0.880900 -1.887446
4.681688 0.217057 -0.760690
4.642450 0.622549 -2.321253
4.985384 0.984693 -2.049522
5.127965 0.950134 -2.263029
5.066322 0.833152 -0.639426
4.488160 1.055998 -1.389127
5.421607 1.732221 -1.583365
4.144883 0.120936 -0.556538
4.117883 0.192663 -1.918210
5.523987 1.361582 -0.609904
4.573484 0.443999 -0.498085
4.090486 0.500561 -1.974601
4.669652 0.624949 -0.759832
5.013207 0.848045 -1.908711
4.894331 0.417923 -0.448765
5.473418 1.487380 -2.495913
5.544599 0.461183 0.752601
3.915792 0.151755 -0.092876
3.877786 1.082933 -0.099772
3.802335 0.180461 -0.261512
3.968185 0.815751 -0.213965
4.388756 0.848875 -1.617490
5.029071 0.956820 -2.261434
4.344541 1.206637 -1.223868
5.046235 0.635273 0.663217
4.950359 0.842655 -1.998080
4.959859 0.884060 -1.000620
4.530414 1.140946 0.308924
4.627447 0.786958 -2.139434
5.302568 0.610196 0.531118
4.112517 0.402496 -0.372639
4.177310 0.379503 -1.264783
5.454486 1.524349 -0.339783
4.297486 0.051012 0.548266
4.494326 1.509633 0.076203
4.523821 0.647342 0.593519
5.015378 0.930453 -1.710396
5.523999 1.365801 -0.339787
5.518994 1.437747 -0.358722
5.175792 0.186164 -0.720912
5.568075 1.368524 -0.304138
4.018440 0.628900 -0.068418
3.955686 0.819449 -0.217250
4.708552 0.740237 -2.405085
4.936018 0.753829 -0.195916
4.992159 0.796275 -2.483831
4.232134 0.217033 -1.308147
4.231442 0.769794 -1.304704
4.625683 0.762467 -1.749040
5.589048 1.218914 -1.722631
4.871281 0.825316 -1.673701
5.300556 0.886174 -2.197576
4.738993 0.771436 -2.020950
5.563861 1.165274 -1.787630
5.126718 0.857160 -2.141174
5.553294 1.198903 -1.687769
5.474667 1.255493 -2.467625
4.958293 0.975578 -1.959063
4.956984 0.788299 -0.950882
5.654018 1.389606 -0.142196
3.902056 1.306668 -0.370957
3.903047 0.866363 -0.123211
4.015808 0.730047 -0.110753
4.959312 0.775283 -0.284321
5.061705 0.790224 -2.624987
4.485783 1.249816 -1.382676
4.142062 0.131017 0.219244
5.009018 1.060566 -1.352915
5.492219 1.059090 -1.682427
5.053541 0.954340 -2.261595
4.237334 0.474697 -0.386139
4.818600 0.795488 -2.456056
5.467143 1.073105 -2.268042
4.692383 0.761299 -1.852124
5.106284 0.775667 -2.137232
4.673553 0.510011 -0.758473
5.029724 0.772909 -0.924531
4.675433 0.575275 -1.573195
5.384906 0.898701 -2.699996
4.904758 0.094141 0.586563
4.957939 0.793901 -2.531578
5.668085 1.373754 -0.288376
4.432716 0.986734 -1.237382
5.352618 0.894755 -2.701125
5.401162 1.054716 -1.679739
5.090839 0.885838 -1.897817
4.533637 0.651943 0.785012
3.786789 0.191306 -0.124490
4.655160 0.780834 -2.140239
5.652670 1.261875 -0.299069
4.933673 0.775514 -2.739875
4.127273 0.379243 -1.682642
5.361287 0.927370 -1.679235
4.845896 0.915531 -2.299667
5.002717 0.772649 -2.754452
4.353159 0.087579 -0.455698
4.742698 0.764465 -1.901293
4.220030 1.437964 -1.169690
5.665645 0.886778 -1.512727
5.534570 1.078994 -2.105776
4.030240 0.518250 -0.334893
5.606726 1.097701 -2.107825
5.084015 0.880130 -1.895932
5.146279 1.049929 -1.827216
3.935037 0.163387 -0.303601
4.838289 0.609109 -0.992892
4.918157 0.365540 0.675800
5.373812 1.534823 -0.266931
4.800593 0.754596 -1.970215
4.919208 0.883092 -1.683054
3.648863 1.047009 -1.281261
4.587603 0.583569 -1.558399
5.503685 1.258769 -2.407839
4.099262 0.384658 -0.379657
4.829350 0.960150 -1.054634
3.933978 0.188588 0.360018
5.582900 1.738470 -1.752987
5.187995 1.462075 -2.437500
5.040056 0.882476 -0.055871
4.833014 0.831286 -2.265796
4.891043 0.840850 -1.163921
5.528952 1.465114 -1.547072
5.319864 1.150222 -0.918020
4.470641 1.460730 -1.382443
4.675559 0.622977 -1.006995
4.610684 0.964995 -2.269193
5.523149 1.475840 -1.552703
4.909511 0.242701 -0.737440
4.842602 0.706533 -2.448455
4.320063 1.027477 -1.448075
4.176279 1.289201 -1.360272
4.949542 0.841777 -1.162140
4.330953 1.026215 -1.445395
4.982958 0.784076 -0.281952
3.798378 1.286159 -0.365067
4.189252 1.298196 -1.359021
4.329377 1.029329 -1.446626
4.520924 1.329619 -0.105244
4.790888 0.606506 -2.291900
4.153075 0.646064 0.029332
4.861358 0.799803 -2.466262
4.544422 0.868368 -0.264987
5.046199 0.886478 -1.893437
5.137719 0.883536 -0.624217
4.778262 0.622273 -2.355800
5.507016 1.063600 -1.655666
5.516420 1.570812 -1.560699
5.628189 1.338618 -1.614577
5.477794 1.145043 -0.909810
4.601146 0.898730 -0.167985
4.374014 0.349192 0.193530
4.905236 0.753584 -0.201582
5.733344 0.974253 -2.505268
4.026866 0.623763 -0.007664
5.507049 1.073112 -2.271164
4.828820 0.959528 -2.315409
3.933192 1.171115 -0.268898
4.595113 1.228669 -1.404514
4.214722 0.531760 -2.152595
4.703257 0.453164 -0.155815
5.253786 1.104986 -0.868637
3.883020 0.867714 -0.130935
4.598317 1.579123 -1.260601
5.052559 0.071989 -0.710704
4.070548 1.309588 -0.304303
4.468219 0.866867 -0.139428
5.503237 1.568572 -1.555491
5.281755 0.922606 -0.390642
4.090465 2.059606 -0.172675
5.063804 0.833569 -0.768184
5.471292 0.890586 -2.736355
5.582620 1.481214 -1.552620
5.201715 0.916184 -0.247022
5.260467 0.918595 -2.669241
4.074388 1.245949 -1.304910
5.501245 1.381113 -0.174520
5.483850 1.486777 -2.493054
4.566923 0.689343 -2.368167
4.661686 0.738994 -2.398801
3.260349 0.636199 -2.432932
4.502422 1.259902 -1.385154
4.263659 0.996313 -1.244761
5.133035 0.913288 -2.953861
3.941355 0.889456 -0.159373
5.469021 1.460305 -1.541384
4.394275 1.238868 -1.378002
5.493050 0.993546 -1.560206
5.344685 1.438446 -0.396258
5.719574 1.336147 -0.654783
5.107384 0.602279 0.481331
5.228120 1.399963 -1.719578
4.921048 0.473336 0.639323
5.498949 1.146182 -1.875138
4.576574 1.579799 -1.264665
5.551308 1.110659 -1.540994
4.701818 0.763704 -1.856486
5.407761 0.885668 -1.850786
5.486949 0.988419 -2.217021
5.578980 1.440810 -0.145669
5.385877 1.256680 -2.444755
5.280693 0.990619 -2.064615
5.247506 0.890385 -2.694390
5.610370 1.235730 -0.335005
4.708539 0.692933 -2.403993
4.682494 0.207005 -0.762753
3.319108 1.157447 -2.467050
4.626227 1.583554 -1.252289
4.134062 1.288678 -1.360539
4.934720 0.777608 -2.736279
4.340452 1.327175 -1.203980
4.985245 0.995035 -2.043788
4.716849 0.108932 -0.757064
4.919361 0.366924 0.673758
4.765891 0.862765 -0.447502
4.996345 0.742398 -0.377163
4.448537 0.772497 -1.375263
5.101153 0.880811 -0.039221
4.470095 1.354477 -1.443255
5.504437 1.436330 -1.714592
4.141533 0.966200 -1.213973
5.537011 1.060025 -1.661162
3.982050 0.137987 0.109599
5.525695 0.981712 -2.479373
4.661814 0.741807 -2.427113
3.947553 1.443420 -0.156583
4.582397 0.584481 -1.575279
5.309120 1.526074 -0.288130
4.207383 0.524299 -1.396915
4.987502 0.006534 0.698220
5.504978 1.631908 -1.666385
4.901260 0.796113 -2.470016
4.419410 1.049204 -1.359307
4.549770 1.469879 -1.373390
4.507469 1.144450 0.307090
4.973297 0.782388 -0.280075
5.408278 1.353980 -0.350611
5.490312 1.739606 -1.578789
5.341419 1.454699 -0.542742
4.021240 0.633029 -0.074740
4.770490 0.431250 -0.471424
5.485163 1.438369 -0.175884
5.489268 1.741046 -1.572994
4.838107 0.888444 -1.668841
5.491636 1.000277 -1.563339
4.605228 0.623068 -2.311157
4.386714 0.108214 0.548051
4.856711 0.706569 -0.184632
5.061694 0.823889 -0.636556
4.761100 0.750181 -0.821268
3.927121 1.883524 -0.159268
98.432676 10.591888 -0.040452
5.109833 0.836486 -2.115807
5.047058 0.892351 -1.823872
4.599902 1.269904 -1.397525
4.941340 0.641356 0.622800
4.870269 0.701660 -0.384594
5.477739 1.252408 -2.146362
5.283334 1.099361 -0.870806
4.038293 0.413234 -0.394808
5.547545 1.272249 -0.669835
5.673303 2.139189 1.650922
4.997987 0.948846 -1.107570
5.265557 0.927306 -1.817682
5.282223 1.417952 -0.222152
3.966899 0.798160 -0.223268
4.280032 1.471891 -1.167129
5.491368 1.368637 -0.594805
5.000792 0.738613 -0.378568
3.993243 1.173377 -0.252654
5.277222 0.897499 -0.126118
4.514652 1.476309 -1.351175
4.498640 1.477707 -1.353018
5.467450 0.900448 -0.406000
4.140739 0.388670 -0.161551
4.386158 1.262279 -1.391736
5.470894 1.079703 -1.649160
6.430443 0.698059 2.058037
5.625081 1.240656 -0.917031
4.321229 1.325708 -1.202638
4.235764 0.996391 -1.247135
5.080275 0.820712 -0.627021
5.199770 0.862498 -0.240875
4.504975 1.354788 0.196821
5.671146 1.874859 1.689620
3.947806 1.437727 -0.155494
4.458505 1.895006 -0.086156
5.135130 0.710064 -0.501057
4.522631 1.257011 0.890976
4.926454 0.769172 -0.484619
4.502871 1.677821 0.638320
5.795780 1.810921 3.240162
5.266200 0.939824 -0.169699
3.916307 1.013691 -0.168186
4.995212 0.693734 -0.149829
4.673575 0.836119 -0.081769
4.057274 0.626386 -0.183238
4.908978 0.846597 -0.439900
4.235528 1.406105 -0.157180
4.456880 1.440098 -0.092036
3.849502 1.287858 -0.343044
4.587637 0.804355 2.711725
5.358846 1.744060 2.690476
3.753997 0.511725 1.028442
5.410143 1.768131 3.571078
4.494340 1.344811 0.308248
4.102406 0.396817 0.021616
5.490190 1.435085 -0.368255
4.455420 1.298402 -0.152122
3.824744 1.165952 -0.210523
4.267805 1.191681 -0.178124
3.969079 0.800139 -0.221953
3.879285 0.666492 -0.245649
5.628746 1.261146 -0.311376
5.069712 0.689324 -0.333893
5.190638 0.889924 2.931097
4.228192 1.241817 1.429288
3.446862 0.726350 -0.295561
3.929180 0.833557 1.759364
4.500855 1.711443 0.638210
4.612017 0.509647 2.684913
3.747677 1.305085 -0.407400
3.850467 0.686990 -0.154536
3.839035 1.148362 -0.194023
4.173374 0.610324 0.044675
3.946548 1.174895 -0.269179
5.628397 1.475121 1.425155
4.741912 1.672348 2.819444
4.656735 0.796225 2.771896
4.735154 0.450406 -0.147133
5.085391 0.773897 -0.257163
4.849425 0.713160 -0.182846
4.224332 0.646087 0.745197
4.502402 1.219517 0.246260
2.944094 0.956114 0.060342
5.408150 1.770565 3.632924
5.039917 0.506510 0.550177
5.438269 2.018302 2.728822
5.321839 0.205697 1.548605
4.705848 0.929783 -0.059680
4.406309 1.371913 0.798525
5.038590 0.350475 0.715487
4.038554 1.121763 -0.308355
3.995408 0.901974 0.920893
3.959136 1.179902 1.560215
3.931309 1.114204 -0.341677
3.928410 0.679749 -0.063258
3.898082 0.641171 -0.231765
4.672326 0.832884 -0.078235
3.995308 1.171694 -0.155119
6.033387 2.212471 1.632674
4.992844 1.250005 3.353322
4.904577 0.930240 3.295020
5.046457 1.728790 2.922614
3.996315 0.670016 -0.034480
4.961737 0.473053 0.654730
4.011005 1.018827 0.872067
4.617810 0.505213 2.683388
4.548467 0.678369 0.840821
5.035655 0.351146 0.717117
4.488376 0.914084 0.880552
5.142139 0.597775 0.816872
3.916543 1.012483 -0.169263
5.793640 0.424203 0.848036
4.873422 0.621544 0.725175
4.647039 0.516631 3.119007
4.472027 0.978507 0.876793
4.964087 0.613983 0.432645
4.990560 0.603812 0.738065
5.382260 0.472913 0.680563
4.503406 1.394375 0.285927
4.487004 0.978402 0.882874
3.886897 1.484303 0.753018
4.641507 1.528726 1.110177
4.852744 0.651837 0.963581
3.988025 0.906771 0.913265
4.074212 1.710493 1.269316
4.510677 0.945712 0.085381
4.009890 1.704458 1.027117
4.064465 1.498671 1.202846
4.693943 0.303019 1.318641
4.416203 1.251714 0.835247
4.201008 1.531472 0.938912
4.181580 0.385064 1.012915
4.027067 1.564778 1.041109
4.194358 1.840962 1.296285
4.118721 1.328178 0.859824
5.189505 0.228802 1.472088
4.111263 1.541693 1.157823
4.553829 1.386390 0.871965
3.962517 1.349338 1.174293
4.468552 0.979246 0.871523
4.891908 0.634720 0.593387
4.070100 1.494103 1.214437
4.836275 0.917039 1.209791
4.827556 1.382004 1.271860
3.948160 1.360513 1.168851
3.885608 1.473948 1.100055
3.760616 1.356002 1.177523
4.981361 -0.040193 3.264332
4.022145 1.712155 1.025825
3.846578 1.503347 0.972821
4.160247 1.513090 1.266842
4.020131 1.712447 1.324937
4.012145 1.560857 1.029154
4.926938 0.355123 1.828124
3.768809 1.159181 1.265238
5.087608 2.068185 2.670775
5.530165 2.091610 2.670708
5.153613 2.036092 1.951671
4.516322 1.473689 1.647964
4.035534 1.417105 1.586427
4.104902 0.829185 1.311898
4.057515 1.400839 0.861862
5.016201 0.331775 1.897806
3.752555 1.370929 1.365659
4.053525 1.717771 1.353168
3.672161 1.187392 1.216844
3.667189 1.373209 1.278402
3.875228 0.942239 1.301273
3.614180 1.140356 1.156401
3.547758 1.009776 2.390686
3.593474 1.351801 2.976147
5.339068 1.229962 1.282459
2.466121 1.116993 1.210951
3.764753 1.352428 1.184753
3.663548 1.231063 1.193062
3.977241 0.903781 1.026208
3.853682 0.911691 0.945363
3.739503 1.183570 1.269194
3.975980 0.943074 1.369465
5.310539 1.963595 2.399728
5.091359 2.069809 2.670888
4.080500 0.824374 1.490826
5.327838 2.165017 2.634864
5.334022 2.051641 2.930027
3.651149 0.896938 1.286639
3.896676 0.895667 1.038519
3.916416 1.516322 1.011324
8.003887 1.869790 4.239113
4.064784 0.941393 1.437156
5.353574 2.000676 2.665943
5.431166 2.018046 2.725305
4.186140 1.436558 1.830178
4.383472 0.817108 1.718681
3.968059 1.179073 1.561659
4.048633 0.825692 1.599981
4.067696 1.426372 1.715908
5.325462 1.776520 3.166608
5.418502 1.774812 3.460424
4.237990 0.797091 1.772423
4.055850 1.370987 0.869751
3.599083 1.354675 1.268679
5.334825 2.399513 4.028509
3.910874 1.327515 0.901483
6.164310 1.601520 2.778114
5.498057 2.070505 3.350239
3.716707 0.874231 1.250811
3.394011 1.200873 1.879298
4.979999 0.979757 3.335870
3.975583 1.684194 1.199857
4.023217 1.373437 1.217593
5.252385 2.080047 3.913663
4.357770 0.431460 2.717898
3.895785 0.949463 1.516628
4.148099 0.815195 1.684617
4.778763 0.631401 2.904084
4.673493 0.269471 3.542068
3.866402 1.048314 1.535295
3.960394 1.695849 1.289879
3.820615 0.675015 1.538248
4.771632 0.607072 2.940871
5.047535 0.920744 3.317649
3.616853 1.372393 3.000436
3.708576 1.221733 1.314176
4.013293 1.019980 0.873078
4.250473 0.828027 1.411987
3.732168 1.481067 1.095770
5.552461 0.045033 3.510918
5.291828 2.011073 3.504099
4.207963 0.835302 1.583031
3.698370 0.843010 1.562053
5.478120 1.442498 3.126940
4.908422 1.996082 2.511757
3.538101 1.365441 2.974950
4.171774 0.943025 2.356575
3.718082 1.378348 1.318442
4.314568 1.532557 1.383771
5.373524 1.964760 4.067994
5.272349 0.817452 2.917131
4.244492 0.451143 2.608245
4.588358 0.499977 2.675504
5.228994 2.022917 2.736028
4.598905 0.510365 2.672418
4.251079 0.935603 1.574439
5.149248 1.996267 2.753710
5.158287 0.797099 2.954783
5.568873 2.153909 2.466927
5.415806 1.780817 2.970392
3.734572 1.221297 1.338044
5.459489 1.520726 3.481439
5.103618 1.405706 2.916455
5.564692 1.774115 3.872280
5.503026 1.438201 3.267966
4.129851 0.490919 3.085904
5.420445 1.776358 3.604895
4.166714 0.859793 1.971505
5.574097 1.871412 4.047045
5.429688 1.515323 3.464357
5.143954 2.080054 2.716426
5.572304 1.458012 3.504957
5.292869 2.089011 3.938112
3.189885 0.864133 3.606945
2.154222 0.948372 1.268008
3.911197 0.842695 1.504449
5.378506 2.411631 4.069936
5.043712 0.925746 2.965886
5.433580 1.976640 4.121647
3.809595 0.675254 1.532619
3.767120 0.716491 1.541952
4.072398 0.817233 1.483172
5.169854 0.773669 3.265609
3.954879 0.944022 1.556597
5.439229 1.985770 4.114536
5.233142 2.091238 2.714592
5.663915 1.040482 2.598647
5.086893 0.936979 3.007887
4.263233 0.484136 2.793244
5.316425 1.756582 3.483465
5.511767 1.441745 3.454270
4.082216 0.819708 1.638194
5.388822 1.771483 2.759640
5.191506 0.887789 2.927813
3.830555 0.941253 1.475760
3.556830 1.331134 2.972128
4.016700 1.414249 1.535615
5.452291 1.525115 3.095058
4.098084 0.495892 3.042110
3.958181 0.815267 1.753585
4.605159 0.677437 3.137904
5.429053 1.578423 3.954088
5.423296 1.574099 3.939902
4.707172 0.488441 2.760478
4.418771 2.047963 4.365966
4.734513 0.782208 3.294489
4.659939 0.914524 3.306425
5.784203 0.891135 4.397942
4.502737 0.792845 3.036590
3.753114 0.445695 3.273712
5.137017 0.959631 3.631960
3.817631 0.435324 3.355260
4.724404 2.020969 4.445593
5.070961 1.521134 3.724202
4.458196 2.114940 4.505305
4.997231 0.908305 3.553495
5.346809 0.950743 3.832089
4.601894 0.920280 3.252179
4.570518 0.796802 3.138314
5.134416 0.772808 3.233257
5.506749 0.893452 3.370069
5.447134 1.293055 4.046159
5.167607 0.787037 2.950146
5.636654 1.816689 3.482013
4.911507 0.906896 3.457372
3.874335 0.427566 3.429341
5.754294 0.897976 3.624418
5.069502 1.300270 3.649355
5.960220 2.095109 4.665945
4.669498 0.622952 3.217705
3.580729 1.377963 2.989146
2.590058 0.906752 2.422433
5.160526 0.916677 3.412904
5.000362 1.281751 3.754721
4.828002 0.930541 3.246476
4.557271 1.168300 3.581739
5.460171 1.759183 3.764904
4.618443 1.243781 3.614349
5.443801 2.132715 4.114698
4.093531 0.887409 3.159801
4.730736 0.987834 3.778082
4.587763 0.253860 3.516796
3.838157 2.069434 4.568577
4.538992 0.914469 3.285556
4.112387 0.879902 3.191886
4.998458 1.302338 3.636400
4.690860 1.182328 3.734704
4.587290 1.170827 3.616484
5.204105 0.911231 3.335605
4.272923 0.625078 3.264808
3.515313 1.355843 2.948907
4.679117 2.007475 4.394987
4.708412 2.108430 4.369602
3.276530 0.463446 3.234302
4.467549 0.918876 3.361730
4.945187 1.028592 4.161058
4.676772 1.183940 3.718200
4.673598 2.040091 4.502334
4.495708 1.246868 3.770425
4.157660 0.883109 3.218393
4.522509 1.690637 4.411181
4.987269 1.514528 3.640425
4.736038 1.002137 3.786961
4.584154 1.249522 3.869862
5.194885 1.381316 4.499940
4.383801 1.239716 3.641405
5.149617 0.936200 3.643499
3.352624 0.553181 3.370923
4.729199 0.993943 3.779669
3.376889 0.558928 3.400840
4.329631 0.560219 3.923049
3.405836 0.556288 3.452910
5.141120 1.341208 3.720582
4.494531 1.185871 3.767791
4.001879 1.615393 3.867177
4.693833 1.240616 3.674627
4.266953 1.667685 4.271406
4.571773 0.916854 3.212467
4.919077 1.132030 4.137779
5.430062 1.417201 4.109620
4.248353 0.914864 2.924104
5.395569 1.768072 3.631075
2.544571 0.909291 2.385247
3.946795 0.965049 3.426070
5.136264 1.340036 3.713294
4.478590 1.257982 3.902921
3.893385 2.069588 4.587640
3.943601 0.964104 3.420194
3.938026 0.965282 3.418636
3.274145 0.595066 3.226177
3.414728 1.210896 2.929178
4.564856 1.173655 3.857692
3.997714 1.629657 4.001628
5.219216 1.722381 3.528650
3.836176 1.776710 4.601774
4.096055 1.163589 3.644431
3.476099 0.791496 3.208182
3.542484 0.785206 3.306014
4.089501 1.678345 4.379380
3.436447 0.796119 3.154307
3.660381 1.242454 3.494661
3.434268 0.798557 3.154369
5.397779 1.416870 4.070789
3.960234 1.533189 3.941878
3.928787 1.619308 3.898747
3.510901 1.410890 3.245596
3.933569 0.621737 2.385303
4.672621 1.007109 3.727878
5.006007 1.299955 3.644802
4.573738 1.243051 3.603928
3.871970 0.963931 3.421665
3.339521 0.480435 3.302913
4.662950 0.631125 3.203903
3.445853 1.223811 3.160110
3.931019 0.964420 3.404847
3.656890 0.865606 3.521654
3.554696 0.879512 3.325993
4.059538 1.717317 4.598927
3.466868 0.793361 3.186215
3.646514 0.873891 3.470712
3.869805 0.959164 3.543786
3.764124 1.125895 3.688651
3.941817 1.612129 4.522427
3.514169 1.116550 3.300473
3.941554 1.777957 4.597584
3.490042 0.859264 3.643116
3.917169 0.966548 3.390602
3.513768 1.110458 3.309816
4.128976 1.693685 4.452681
4.569863 0.676593 3.096679
3.502260 1.026430 3.381913
3.781288 2.118631 4.732354
3.858929 0.960517 3.521966
3.450230 1.054151 3.090425
3.263012 0.497441 3.183394
3.592401 1.027374 3.520597
3.896094 0.968090 3.433813
4.548977 0.914287 3.456005
3.616509 1.364872 2.990437
3.541651 0.755129 3.662560
3.399944 0.701837 3.444328
3.554706 1.024015 3.459284
3.326456 0.562301 3.325162
3.584161 1.118666 3.525140
3.552844 1.027275 3.452384
3.517327 1.115972 3.305921
3.269391 0.244926 4.684932
3.463172 0.866487 3.253069
4.071676 0.895530 3.130748
3.863921 1.752480 4.469994
3.417040 0.271885 4.564437
3.800463 1.734583 4.540532
3.519069 0.366451 4.134667
3.660921 0.359771 4.187747
3.634446 2.029953 4.560275
3.449882 0.790531 3.192930
3.951228 1.782938 4.618497
3.915297 1.804047 4.737148
3.213597 0.347564 4.106039
3.276078 0.324038 4.256616
3.523047 0.367082 4.120489
4.612605 0.900067 3.415494
3.670689 1.397414 3.087267
3.481405 1.215697 3.030417
3.700416 1.753890 4.604252
3.411436 0.838239 3.198921
3.911582 1.609272 4.487097
3.539063 0.363123 4.156679
3.940837 0.964616 3.418245
3.899007 0.963051 3.452524
4.411610 1.328996 4.018282
3.572327 1.689537 4.527572
3.506736 0.761868 3.601102
3.903147 0.964947 3.456461
3.287944 1.104180 3.085808
3.839987 1.242375 3.954808
3.873914 0.963334 3.427622
3.397413 0.855406 3.107611
3.489551 1.217566 3.041584
3.414769 0.864889 3.238027
3.671355 0.716072 4.059404
3.874193 1.248725 3.988556
3.648886 0.718294 4.022955
3.866972 1.247708 3.978827
3.494371 0.686671 3.590431
3.497375 1.144025 3.721798
4.399617 1.173915 3.654204
3.466346 0.869147 3.253406
4.041807 1.711569 4.572633
3.211265 0.462234 4.319804
3.273286 1.096745 3.423686
4.080972 1.143436 3.655460
3.414307 1.051312 3.038674
3.481464 0.843681 3.837523
3.708762 0.827940 4.006179
3.579525 0.634691 3.967601
3.447494 0.869172 3.261419
3.629494 0.829372 4.091850
3.585102 0.496857 4.460205
3.335063 0.848098 3.087073
3.565143 0.971095 3.910844
3.475409 0.972025 3.851566
3.417476 0.444801 4.540612
3.489921 0.798240 3.948176
3.478273 1.141700 3.681910
3.525581 0.743994 4.002779
3.396137 0.852891 3.687285
3.653759 0.447064 4.071732
3.660324 1.345239 3.069280
3.655530 0.362935 4.171625
3.446354 0.767754 3.506695
3.520634 0.756733 3.638803
3.877072 1.750552 4.540190
3.350479 0.879987 3.719562
3.499983 0.787063 3.952601
3.475988 0.894460 3.897509
3.361946 0.787338 3.741993
3.433404 0.969073 3.840541
3.697439 0.838449 3.997711
3.511876 1.275917 2.927172
3.521658 1.221720 3.081567
3.695405 1.358237 3.113253
3.565289 2.029820 4.508427
3.428215 1.220500 3.141937
3.398166 0.836491 3.181895
3.407112 0.702741 3.459285
3.473077 1.113267 3.364116
3.513288 1.658485 4.402856
3.627733 1.577801 4.320084
3.623003 0.631698 4.022196
4.080456 1.595725 4.385717
3.433861 0.798384 3.138561
3.290222 0.567957 3.265391
2.902215 0.414017 4.375666
3.280560 0.443060 4.476616
3.572201 0.968221 4.101840
3.867094 1.417841 4.608411
3.672671 0.958805 4.256490
3.192616 0.847255 3.426111
3.512649 0.958975 3.961692
3.444005 0.902752 3.674585
3.906537 1.389232 3.395238
4.176315 1.646518 4.496784
3.536310 0.417062 4.186298
3.856593 2.052669 4.514888
3.622691 0.921794 3.597571
3.422928 0.871556 3.221891
3.686379 1.611669 4.442580
3.492335 1.365949 2.897369
3.470881 0.857188 3.823434
3.140942 0.306971 4.907767
3.260385 0.791319 3.683520
3.533072 0.418506 4.180073
3.536332 0.751247 4.013110
3.402678 0.392466 4.289260
4.685234 2.010576 4.398715
3.047337 0.357258 4.638675
3.485573 0.890943 3.676579
3.846677 0.963161 3.502404
3.368821 0.879922 3.758756
3.495328 1.024014 3.272611
3.325014 0.910000 3.673672
4.132727 1.689540 4.444961
2.795257 0.511782 4.005862
3.496042 1.025247 3.268233
3.451893 1.342016 2.872714
3.343306 0.978051 3.605692
3.382936 0.896735 3.103653
3.145168 1.546913 4.459285
3.437464 0.886855 3.152947
3.548534 1.117575 3.485449
4.249937 1.555221 4.072719
3.900591 1.198986 3.633803
3.255832 0.448830 4.427469
3.819802 2.012417 4.558198
3.600724 1.622818 4.439299
3.539318 0.968291 4.046771
3.479269 1.173980 4.105554
3.630035 0.481764 4.122870
3.512758 0.792048 3.982273
3.884964 1.593517 4.408028
3.651235 1.626089 4.470381
3.614910 1.687640 4.509926
3.219923 0.875218 3.641602
3.488758 1.176630 4.118364
3.245223 1.624354 4.461195
3.286201 0.795909 3.752167
3.463898 0.853777 3.246868
3.638742 1.633499 4.506036
3.444696 1.178252 4.178507
3.998858 1.700357 4.499393
3.179562 0.456529 4.131226
2.825261 0.476158 4.144244
3.498339 1.645016 4.396389
3.537795 1.121336 3.527148
3.281425 0.486423 4.262094
3.392445 0.900800 3.591726
3.498158 0.835844 3.578270
3.348399 1.668305 4.683682
3.484362 1.172547 4.115788
3.595453 1.622245 4.413233
3.356228 1.020549 3.767337
3.403548 0.845940 3.183760
3.150201 0.885127 3.028282
3.379392 0.851065 3.145688
3.492270 0.909781 3.743876
3.341645 1.026633 3.518327
3.636826 0.622931 4.069352
3.470877 1.171121 3.836206
3.161910 1.866535 4.387092
3.593473 0.509820 3.920345
3.461197 0.838501 3.829895
4.126367 1.652324 4.356471
3.580735 0.592803 4.151393
3.457387 0.863031 3.480239
3.776351 0.966162 3.408816
3.480962 1.115665 3.431489
3.831728 1.776312 4.572365
3.285727 0.972201 3.424180
3.225880 0.853526 3.683887
3.213138 0.872147 3.641002
3.253083 0.787590 3.672662
3.568218 1.184736 4.382367
4.121973 1.567044 4.517490
3.541829 0.896400 4.010981
3.476453 0.912695 3.947846
3.294637 1.357034 4.459040
3.434733 1.104756 4.126652
3.472677 1.055298 4.159478
3.141104 1.308383 4.095363
3.970990 0.959655 3.484484
3.730427 0.836986 4.070726
3.725307 1.622917 4.511645
3.299778 0.802158 3.769132
3.210121 0.857192 3.656900
3.235143 0.857249 3.702236
3.360983 0.898994 3.747615
3.538922 1.024423 4.039503
3.936160 1.420233 4.707066
3.435564 1.174140 4.146495
3.070132 0.653696 4.106312
2.980966 0.917674 2.520414
3.692542 1.605088 4.487506
3.401185 0.838293 3.186084
3.057359 1.558924 4.785705
3.144097 1.591015 5.035625
3.490025 1.118077 3.451872
3.352162 0.976895 3.538315
3.493132 1.031089 3.358913
3.408891 0.376441 4.473169
3.339408 1.110507 3.519341
3.390242 0.378906 4.391373
3.383962 0.836595 3.080044
3.193957 0.876271 3.592288
3.386549 1.016544 3.588530
3.217995 1.392950 4.532734
3.432993 0.831281 3.134615
3.883079 1.641904 4.808513
3.356153 1.666117 4.699215
3.396752 1.116822 3.862969
3.498062 1.180601 4.265480
4.005300 1.613887 4.507836
3.361377 1.122358 3.945839
3.456567 1.004980 4.204443
3.485966 1.182704 4.263546
3.195345 1.339021 4.230080
3.493084 1.437313 4.769445
3.160786 1.333265 4.191531
3.438945 1.014066 4.194043
3.182548 1.325346 4.274894
3.196944 0.890439 4.021612
3.389128 0.858486 3.149741
3.457200 1.024466 3.328418
3.397369 0.703561 3.460589
3.543254 0.860660 3.633496
3.327787 0.633286 3.244632
3.512213 1.026089 3.405462
3.323179 0.495334 4.358201
3.327194 0.874171 3.354036
3.216589 0.911781 4.061867
