ply
format ascii 1.0
comment Reconstruct SLAM ply output
element vertex 1714
property float x
property float y
property float z
end_header
-0.250161 0.193546 0.815414
0.129954 -0.184365 1.30961
0.209366 -0.190475 1.26185
0.262934 -0.103746 1.23989
-0.244317 0.053414 0.966166
-0.521072 0.15556 0.838715
-0.516921 0.104955 0.937401
0.227617 -0.0147156 1.00184
0.261442 0.195467 0.804178
0.255532 0.145907 0.898039
0.197607 0.142366 0.865078
0.113671 0.167924 0.895186
-0.845669 -0.230474 1.13016
0.0263958 0.263038 0.664807
-0.337736 -0.263085 1.30635
-0.564198 0.251683 0.741356
-0.575088 0.0530402 0.97977
0.124582 -0.018021 1.02325
0.113681 0.0334012 0.984474
-0.406111 0.207926 0.817001
-0.293194 -0.135129 1.16121
-0.0753314 0.0110963 1.04563
-0.457946 -0.241777 1.25313
-0.6371 0.0210239 0.890799
-0.648648 -0.345134 1.11244
0.0646934 0.084167 0.974108
-0.007283 0.15529 0.905594
-0.473663 0.185129 0.758947
-0.50948 -0.213087 1.23146
-0.463635 0.252606 0.669127
-0.501314 0.258942 0.717162
-0.268854 0.230237 0.730807
0.205062 0.230585 0.75638
0.206162 0.26228 0.770802
-0.0531776 0.251865 0.760703
-0.326625 -0.171675 1.21982
-0.318792 -0.0831797 1.17382
-0.280263 -0.243199 1.34091
0.128927 -0.12274 1.24087
-0.386417 0.218011 0.694058
-0.627469 0.191975 0.79506
-0.650846 0.188178 0.79995
-0.120464 0.256462 0.749266
-0.367147 -0.155687 1.21189
-0.254508 0.119454 0.86519
0.0162124 0.265053 0.728237
0.0266408 0.241735 0.691923
-0.429424 -0.172257 1.23191
-0.173256 -0.0982518 1.01554
-0.635981 -0.204219 1.11229
-0.274317 0.163534 0.854237
0.0517179 0.0606053 1.11803
-0.451189 0.260362 0.728679
0.141205 0.222978 0.807097
0.260379 0.19499 0.801594
-0.637469 -0.0733002 1.03677
-0.245727 0.0864838 0.968656
0.248576 0.259411 0.760336
-0.759758 0.23733 0.974242
-0.275683 -0.0855554 1.16994
-0.196065 0.264863 0.745235
0.0168355 0.109812 0.97226
0.203928 0.254703 0.707697
-0.527288 0.125017 0.908468
-0.600309 0.144972 0.788647
-0.599106 0.121107 0.840664
-0.406486 0.15334 0.857494
-0.0352628 0.224126 0.804367
0.243711 -0.043894 1.03694
-0.658785 0.226299 0.789448
0.340267 -0.00513161 1.08425
-0.0331845 -0.132321 1.20837
-0.0970955 -0.190433 1.35287
-0.332043 0.148729 0.843442
-0.67251 -0.116109 1.02255
-0.382642 0.209199 0.764143
-0.404423 0.196033 0.744995
0.108938 0.098157 0.968979
0.171717 -0.228522 1.36844
-0.704553 0.0636398 0.841266
0.0739071 0.245222 0.79116
0.274779 0.0366213 0.904473
0.169538 0.243952 0.719226
-0.0793515 0.00925947 1.04567
-0.323406 0.0248104 0.990007
0.0644473 0.248328 0.679121
0.0696159 0.213514 0.839755
0.0920834 -0.0794823 1.09559
-0.683389 -0.10205 0.994629
-0.409298 0.0174609 1.00122
-0.100622 -0.0328461 1.09181
-0.783546 -0.129576 0.946563
-0.448268 0.133853 0.803001
-0.664885 0.00851885 0.980072
-0.706029 -0.0940762 0.900822
-0.320677 0.237138 0.667899
-0.363268 0.226055 0.733477
-0.0640934 -0.092554 1.24039
-0.767604 -0.0842551 0.943335
-0.740552 -0.0606385 0.901976
0.132887 0.26584 0.722001
0.223364 0.128616 0.870978
-0.525204 0.212501 0.737271
0.194801 -0.281575 1.18171
-0.499599 -0.133343 1.17758
0.0139112 0.0247085 1.03122
0.328572 -0.129178 1.23698
-0.677388 -0.13935 1.04777
0.0977987 0.239156 0.77888
-0.63528 0.220557 0.781831
-0.787366 -0.141616 0.986926
0.190333 -0.157729 1.26397
0.0294497 0.00464381 1.04762
-0.287388 -0.255537 1.30051
-0.133616 -0.0794567 0.891037
0.0595682 0.171718 0.887781
0.181162 0.0666448 0.932996
-0.192568 0.0916623 0.971412
0.0699248 0.0754416 0.988641
0.0753738 -0.0629204 1.09751
-0.235516 -0.180561 1.26763
-0.0981504 -0.0316842 1.11461
-0.11274 -0.143532 1.1582
-0.335047 0.249546 0.698584
-0.344784 0.246882 0.684562
-0.199474 0.220294 0.699825
-0.396138 0.25505 0.714017
-0.556375 -0.0444005 1.06983
0.201784 -0.1816 1.26457
0.158939 0.208096 0.777729
-0.45384 -0.0379506 1.05258
-0.539479 -0.242811 1.24933
-0.26184 0.132047 0.839626
0.0304103 -0.257705 1.44021
-0.61651 0.142699 0.782378
-0.574997 -0.178117 1.11837
-0.480626 -0.174807 1.12439
-0.386887 0.235647 0.716184
0.131634 0.15927 0.944961
-0.0482732 -0.134572 1.20839
-0.0963634 0.0393707 0.818465
-0.350855 -0.187911 1.28971
-0.346374 -0.251115 1.27855
-0.636499 -0.0728448 1.0355
-0.608021 0.0269928 0.952169
-0.0297661 0.163795 0.881811
-0.160393 0.215951 0.784219
0.0774309 -0.0342626 1.01583
0.177099 0.0667043 0.935109
-0.773809 -0.0649146 0.942071
-0.441399 -0.147729 1.19896
0.119873 0.0333827 1.00006
0.00206607 0.12649 0.944327
0.0227448 0.0219324 1.03487
-0.0945144 0.0391025 0.834994
0.0946881 0.112821 0.983637
0.139176 0.119714 0.924874
-0.129651 0.225995 0.78678
-0.506321 0.131206 0.896432
-0.266306 0.235325 0.75869
-0.744984 -0.135343 0.928146
-0.602728 -0.213074 1.13537
-0.50399 -0.22858 1.21701
-0.30772 -0.0804285 1.1413
-0.720482 -0.196633 1.01591
-0.629775 -0.204914 1.10912
0.139038 -0.227748 1.33334
0.0490123 -0.164325 1.27787
-0.303704 0.183965 0.747618
-0.540107 0.243848 0.7072
-0.361449 0.145216 0.8761
0.0462887 -0.0096008 1.04131
0.274339 -0.034305 1.05109
0.0848217 -0.0713545 0.982821
0.157798 0.0944872 0.93821
0.269623 -0.0323306 1.0404
0.183976 0.0479672 0.935324
-0.34753 -0.328819 2.22525
0.313773 -0.228181 1.20272
0.197756 -0.160367 1.26899
-0.0394991 -0.0947109 0.823433
-0.478632 0.171765 0.915526
-0.211497 0.23185 0.742682
-0.25472 0.22358 0.724198
-0.813821 0.193355 1.04425
-0.273398 0.13049 0.916131
-0.564494 0.141229 0.894214
0.0526224 0.145899 0.96118
-0.614836 -0.304993 1.03238
-0.611075 0.196674 0.770895
0.227669 0.21049 0.777245
0.190114 0.244796 0.716855
-0.368924 -0.044364 1.12398
0.0898468 -0.0790673 1.0933
-0.2449 -0.313589 1.50016
-0.530709 0.0714851 0.975145
-0.692107 0.0283806 0.833112
0.404057 -0.0457702 1.1606
0.249863 -0.162926 1.24659
0.123157 0.219832 0.833678
-0.626199 -0.13095 1.07146
-0.406658 0.25188 0.764421
-0.355484 -0.249881 1.14239
-0.422034 0.206608 0.779732
-0.685881 0.027837 0.865631
0.167586 0.276071 0.677967
-0.185444 0.0543757 1.00797
-0.382711 0.0251313 0.985858
0.198099 -0.140143 1.21998
-0.342756 0.204088 0.730524
0.0718295 0.0644426 0.984277
-0.335284 0.249158 0.739347
0.310056 -0.296771 1.21487
0.386349 -0.161053 1.28402
-0.0994247 -0.186688 1.34691
-0.434274 0.25225 0.704942
-0.523058 -0.133377 1.13897
0.352663 -0.131087 1.08125
-0.452923 0.178635 0.878012
-0.231036 -0.177476 1.26201
-0.294732 -0.175424 1.2297
0.0616613 0.0529015 0.975583
0.0819395 0.0299801 1.03008
-0.334646 0.223618 0.768473
-0.730579 -0.197359 1.02855
0.0842262 0.120631 0.94437
-0.739523 -0.125347 1.01717
-0.269153 0.239576 0.735641
-0.0966415 -0.0318115 1.11288
-0.691161 -0.137149 1.00161
-0.725076 -0.195122 1.01919
-0.404922 0.193586 0.744296
-0.665664 0.179911 0.811833
-0.579535 0.245787 0.760996
0.126389 0.1571 0.911419
-0.264133 0.0222943 1.10031
0.015049 0.10841 0.972257
-0.182429 0.213581 0.812387
-0.142564 0.0272244 0.966233
-0.308699 0.167502 0.847094
-0.694652 0.0260252 0.878201
-0.712361 -0.0100342 0.910773
-0.537208 0.15947 0.86354
-0.330662 0.149536 0.844494
-0.473776 0.105966 0.600751
-0.581254 0.0408146 0.98823
-0.464179 -0.0868361 1.15848
-0.499705 -0.128758 1.16275
-0.260226 0.213833 0.694877
-0.378252 0.0143758 1.00247
-0.0182324 -0.0515785 1.04742
0.0684811 0.24497 0.795724
-0.110926 -0.10658 0.986457
-0.151934 0.0972254 0.966325
-0.476196 -0.177087 1.13479
0.13867 0.0991555 0.937668
0.110528 0.083191 0.946831
-0.564401 0.273789 0.752223
0.255352 0.146297 0.896579
-0.0862899 -0.19713 1.28226
-0.228032 -0.192043 1.27478
-0.631509 -0.0290698 0.95012
-0.227966 -0.107038 1.16697
-0.692309 -0.136228 1.00757
0.0627727 0.0869635 0.978999
0.0119388 -0.298882 1.38144
0.272769 -0.00159385 0.989873
0.0713174 -0.00309237 1.03514
0.0797241 -0.0209817 1.0425
-0.265232 -0.152331 1.08525
0.399642 -0.0755631 1.17474
-0.143878 0.241922 0.657762
0.162816 -0.00216585 0.960425
-0.194405 0.0918712 0.973181
-0.41695 0.097886 0.941568
0.168446 0.158178 0.873587
0.315772 -0.224206 1.20951
-0.40572 0.0572044 0.99835
-0.58533 -0.0241231 1.02991
0.015573 0.192311 0.850988
0.115415 -0.0109338 1.02847
0.142318 0.120099 0.929517
-0.601 -0.120837 1.10821
-0.102055 -0.201709 1.3509
0.324915 -0.127044 1.23753
-0.580091 0.160376 0.861569
-0.818973 -0.178366 1.10147
-0.6745 -0.0232784 0.995398
-0.115092 0.252934 0.752696
-0.205072 0.244111 0.686381
-0.307372 -0.0188818 1.07163
-0.116868 0.200908 0.827823
-0.120995 0.21311 0.681186
-0.0885287 0.0745387 1.01852
-0.265692 0.193302 0.760588
-0.314636 0.20884 0.741629
0.039886 0.204325 0.858984
-0.301953 0.0914253 0.958734
-0.133893 0.194014 0.845923
-0.121002 -0.0887439 0.913119
0.0710274 0.252675 0.689651
-0.361438 0.195034 0.791664
-0.438526 0.25894 0.731286
-0.158422 0.212114 0.801846
-0.371202 0.236272 0.669802
-0.283904 0.22124 0.670468
-0.181689 0.212386 0.805439
-0.0373608 0.223667 0.808093
-0.313508 0.250013 0.749055
0.110386 -0.0141275 1.02268
-0.50804 -0.212898 1.23109
0.22867 0.130372 0.927303
-0.50004 0.259 0.716582
0.0457935 0.0537471 0.992632
0.163212 -0.242507 1.38088
0.206058 0.164614 0.835207
0.110453 0.178273 0.872777
-0.472363 0.144494 0.850405
-0.559975 -0.253391 1.17633
0.223971 -0.126369 1.20771
-0.475964 0.0235879 1.03802
0.00156191 0.126702 0.934795
-0.671853 0.189058 0.792859
-0.288931 0.063477 0.975653
0.0155304 0.109941 0.969824
-0.403799 0.218287 0.791258
0.0741975 0.0649775 0.992689
0.233664 -0.299758 1.24706
0.119194 -0.304933 1.3018
0.311953 -0.29259 1.21311
0.256068 -0.342985 1.22942
0.302922 -0.326301 1.19507
-0.0771659 0.20851 0.823233
0.203347 0.252794 0.705046
0.139741 0.259994 0.699178
-0.138204 -0.227216 1.38959
0.402213 -0.00328913 1.26822
-0.608874 -0.0234092 1.02303
0.098731 0.127005 0.939133
0.209272 -0.177856 1.26846
0.0938955 0.110358 0.982393
0.399887 -0.214646 1.29021
-0.42327 0.178003 0.805156
-0.577695 0.0422465 0.988115
-0.566 0.153051 0.863969
-0.0721162 0.138936 0.915993
0.342136 -0.138766 1.14074
0.0118265 -0.0651243 1.04293
-0.687025 -0.119045 0.995345
-0.409536 -0.143022 1.24556
0.176952 0.0870161 0.953844
-0.157667 -0.0425908 1.13079
-0.0464811 -0.0407948 1.10447
-0.602603 -0.120723 1.10572
0.339043 -0.187749 1.31947
-0.277879 0.240553 0.682306
-0.587077 -0.0233145 1.02878
0.274194 0.0364283 0.903927
-0.330196 -0.107003 1.13814
0.0516221 0.0296801 1.04046
0.0382146 0.182288 0.884809
-0.687659 -0.119472 0.997353
0.0895243 0.106989 0.962233
-0.719167 -0.101129 0.965313
-0.220518 -0.143177 1.1995
-0.465617 -0.0871388 1.15732
0.154828 0.174997 0.800397
0.365684 -0.114674 1.22153
-0.019025 -0.0566003 1.13529
-0.559726 -0.0456757 1.07448
-0.582811 0.0429381 0.999836
-0.5891 -0.021144 0.864368
-0.199099 0.21995 0.699802
0.0890978 0.107074 0.959455
-0.693166 -0.163557 1.04149
-0.650311 -0.235434 1.09237
-0.713523 -0.192219 1.00221
0.212124 0.187706 0.803881
0.117959 0.0352228 0.99166
-0.34571 0.203157 0.674789
-0.0578972 0.251501 0.766044
-0.647234 -0.128573 1.06211
-0.693002 -0.104154 1.01333
-0.635997 -0.155016 1.07406
-0.706477 -0.209881 1.07221
0.183947 0.241278 0.73757
0.147446 0.176331 0.834189
0.0918851 0.0859898 0.869518
0.119331 -0.0126628 1.04346
-0.521404 0.0722483 0.953615
-0.693504 -0.117115 0.951005
-0.250533 0.0889155 0.972453
-0.449262 -0.173611 1.208
0.344326 -0.111852 1.18342
-0.568406 -0.177789 1.11178
0.0845648 0.151335 0.926233
-0.405586 0.156679 0.871985
-0.262969 0.225978 0.751325
0.106802 0.242117 0.801827
0.078817 -0.00328936 1.02706
-0.549429 0.196663 0.823398
-0.0732947 0.137428 0.915853
-0.443053 0.239515 0.725218
-0.5001 -0.131538 1.16683
-0.535591 -0.218983 1.13757
-0.541319 -0.0441267 1.1587
-0.371216 0.204491 0.779728
-0.672058 -0.143591 1.05918
-0.128277 0.273865 0.725348
0.301959 -0.034649 1.06964
0.0933577 0.107946 0.979705
-0.552288 -0.0474039 1.13208
-0.355084 0.108967 0.933347
-0.563208 0.146214 0.890746
-0.125665 0.280843 0.735635
0.188406 0.0666277 0.94541
0.240485 -0.00676624 0.981671
0.238014 0.13723 0.929464
0.0784627 -0.0835326 1.15944
-0.182044 -0.102532 1.07531
0.0950318 0.265325 0.689287
-0.685762 -0.0465986 0.927513
0.0704916 -0.349708 1.32815
-0.367096 0.00972502 1.01288
0.227859 0.130188 0.937375
-0.356064 -0.191772 1.32583
-0.460564 -0.207633 1.17769
-0.128985 0.267981 0.726712
-0.0789091 0.201355 0.824835
-0.655886 0.0237393 0.868163
-0.745281 -0.010194 0.952151
-0.733316 -0.12435 1.0097
-0.727136 -0.0111116 0.929052
-0.0730594 0.13822 0.916236
0.225867 0.0347772 0.959161
-0.203365 -0.118877 1.04887
0.172991 0.229488 0.741846
-0.555395 -0.184613 1.18783
-0.310512 0.12558 0.910586
-0.0414457 -0.0509017 1.13081
-0.695885 -0.101141 1.03258
-0.0420712 -0.0491912 1.11248
-0.15163 0.191603 0.835801
-0.621842 -0.121758 1.07521
-0.468267 -0.0424035 1.12028
-0.180388 -0.20584 1.37712
-0.536599 -0.239825 1.23656
0.00525036 0.291386 0.709943
0.119497 -0.122675 1.23264
-0.363096 0.0480652 1.02384
-0.382715 0.0393998 1.03219
-0.684165 0.0258506 0.863864
-0.526191 0.126841 0.908094
-0.0943487 0.217302 0.805684
0.0724909 -0.179819 1.32175
-0.136453 0.0342186 1.03954
-0.173646 -0.172628 1.14573
-0.668321 -0.145189 1.0546
0.0813158 0.0360467 0.988377
0.105324 0.010032 0.991685
-0.646877 -0.140788 1.06774
-0.308443 0.130853 0.901978
-0.786606 -0.145697 1.03902
-0.701089 -0.0874731 0.924047
0.20308 0.117703 0.935207
0.358764 -0.112136 1.2012
0.0627008 0.109706 0.988912
-0.57413 -0.16197 1.11699
-0.157647 -0.298375 1.44397
-0.0744134 0.234554 0.802925
0.0921462 0.130064 0.96865
-0.376816 0.0191701 1.04995
-0.00574513 0.0108696 1.07959
-0.0227394 0.114368 0.96106
0.109498 0.282217 0.703491
-0.389483 -0.107615 1.18531
-0.50438 -0.217919 1.23135
-0.663302 -0.238612 1.1266
0.196858 0.0178226 0.921299
-0.729365 -0.102758 0.983465
-0.300497 -0.110651 1.23771
-0.138147 -0.186824 1.30749
-0.666567 0.0473395 0.85604
-0.38452 0.218897 0.794183
-0.458199 -0.245461 1.21969
-0.393086 0.0931733 0.679461
-0.368829 -0.0523051 1.14109
0.19917 -0.040222 1.03648
0.213958 0.2316 0.751404
-0.0596434 0.277186 0.715121
0.0881082 -0.0611658 1.13047
0.0674999 0.217405 0.840345
-0.12067 0.219835 0.800072
0.190426 0.124565 0.897221
-0.380156 0.206139 0.835566
0.140187 0.23117 0.784604
-0.67679 -0.114237 1.04562
-0.136248 0.0386335 1.05301
-0.618961 -0.169322 1.1856
-0.0310261 0.00647766 1.05381
-0.138212 -0.187811 1.33964
0.210422 0.235854 0.745547
0.39227 -0.162999 1.29668
-0.103449 -0.254631 1.42677
-0.661308 0.228508 0.812374
-0.0316354 0.124654 0.963552
-0.691918 -0.114699 0.954461
0.250083 0.223906 0.761318
-0.651518 0.131303 0.797825
-0.255271 0.136686 0.888781
0.091153 0.0315011 1.04979
-0.562158 0.191411 0.818051
-0.366887 0.127599 0.8903
-0.703928 -0.064423 0.932357
-0.273323 0.165205 0.84357
-0.631486 -0.0278088 1.08029
0.0729115 0.0962773 0.983887
0.11405 0.110201 0.933415
-0.103237 0.0408427 0.868571
0.273053 0.0368524 0.90344
-0.62811 -0.0207804 0.924101
-0.530876 0.172625 0.682093
-0.220826 -0.13339 1.1714
-0.252982 0.23576 0.660217
-0.645862 -0.0015995 0.943101
-0.612964 -0.120445 1.09736
-0.307503 0.141647 0.887032
-0.0343936 -0.149081 1.24869
-0.140625 -0.275747 1.44486
0.117086 0.169487 0.905502
-0.513147 -0.125998 1.21814
0.161073 0.225663 0.743362
-0.664153 0.0251123 0.882034
-0.542459 0.102894 0.925211
0.049056 -0.0110198 1.05271
0.0620799 0.223773 0.845196
-0.0930896 -0.188121 1.32926
0.143463 0.227422 0.77382
-0.636379 0.132048 0.782793
-0.426636 0.0592056 1.00282
-0.406739 0.0579424 0.998516
0.113339 -0.103438 1.31434
-0.00290624 0.193727 0.845814
0.266631 -0.117002 1.23728
0.250372 0.223827 0.761624
-0.626677 -0.119984 1.07452
0.0249029 -0.0298753 1.05977
0.449719 -0.212837 1.39201
0.06098 -0.164379 1.27691
0.0556585 -0.165312 1.26859
-0.530858 0.0773278 0.975388
-0.0438462 -0.278241 1.46823
-0.368074 0.127661 0.898591
0.0201075 -0.30415 1.3827
0.2951 0.168699 0.86805
-0.551231 0.201566 0.832508
-0.131174 0.0298578 1.01277
-0.649191 -0.136145 1.07049
0.118648 0.270127 0.698285
-0.0175221 0.131011 0.943595
0.063012 0.175107 0.888208
-0.5051 0.130939 0.901747
0.157528 0.0949413 0.928816
-0.273852 0.247505 0.639732
0.503257 -0.224337 1.31329
0.418626 -0.119653 1.2486
-0.630609 0.216 0.75724
-0.261971 0.223531 0.779536
-0.553764 -0.0437726 1.06313
0.00469413 -0.0189838 1.07468
-0.54954 0.200332 0.824987
0.18493 0.236096 0.733306
0.14991 -0.109213 1.1986
-0.575789 -0.16188 1.13577
0.344185 -0.0800062 1.19374
0.167558 0.22068 0.758336
-0.48334 -0.140604 1.1727
0.0183998 0.177337 0.921524
0.0819686 0.150023 0.920651
-0.36219 0.0461364 1.02044
0.251219 -0.165522 1.24979
0.23392 0.176145 0.851861
0.364282 -0.106506 1.23108
-0.507754 0.133541 0.898917
-0.00932199 0.0545214 1.01527
0.0600702 0.0713499 0.981839
-0.463257 -0.0362563 1.08653
-0.0329016 0.114216 0.971089
-0.684526 -0.120771 0.987172
-0.45375 0.150618 0.80598
-0.480642 -0.1902 1.17472
0.0534449 0.205058 0.862397
-0.694939 -0.165206 1.04855
-0.222868 -0.137935 1.171
-0.0351689 0.237343 0.707459
-0.24582 -0.0026319 1.0401
-0.278448 -0.085358 1.19433
-0.468057 -0.042909 1.11386
-0.0278388 0.165443 0.877544
-0.0331948 0.122292 0.943006
-0.0580167 -0.0901611 1.16665
0.164753 0.244721 0.71181
-0.580941 0.0885185 0.953992
0.302072 -0.153713 1.22799
-0.638584 0.0414227 0.867348
-0.622562 0.0274481 0.974554
0.0666512 -0.0888556 1.17909
0.190514 0.288246 0.702247
-0.255044 0.01869 1.0536
-0.58048 -0.118447 1.15231
-0.412776 0.0963439 0.939654
-0.554937 0.11383 0.921601
-0.265957 0.124308 0.833205
-0.675192 -0.128071 1.04747
0.224786 -0.255764 1.24685
-0.084859 0.144934 0.913898
0.202319 -0.135459 1.2154
-0.0332347 0.00911998 1.04777
-0.580946 0.0859469 0.943761
-0.613783 -0.0267106 1.02468
-0.574723 0.0964677 0.933219
0.0456168 -0.304606 1.43936
0.15881 0.299565 0.672978
-0.305423 0.184913 0.727673
-0.304463 0.188196 0.73766
0.0962324 0.275789 0.70238
-0.261567 0.260552 0.77283
-0.385746 -0.178897 1.27919
-0.506432 0.168399 0.804161
0.178372 -0.141861 1.19657
-0.211663 -0.22406 1.32166
-0.208913 0.227319 0.76548
0.29775 0.142314 0.888522
0.188799 0.067265 0.943684
0.510678 -0.225242 1.31668
0.0143033 -0.0396137 1.05875
-0.627138 -0.159787 1.07512
0.300649 -0.322692 1.21367
-0.119579 0.220687 0.797271
0.00803953 0.0189571 1.02679
0.29737 0.154844 0.862077
0.257608 0.169125 0.830386
-0.641936 -0.124881 1.06226
-0.0344891 0.0884822 0.98442
0.283397 0.161829 0.871251
-0.702801 -0.059029 0.931722
-0.557407 -0.112705 1.07866
-0.394401 -0.14789 1.2348
-0.498402 0.0963674 0.9402
0.0266857 -0.0487203 1.14093
-0.136881 -0.264085 1.44685
-0.330914 -0.0163239 1.06973
0.434712 -0.00415644 1.08603
-0.590859 0.136783 0.785042
0.0283079 -0.0490385 1.14133
-0.0857807 0.0296056 1.00448
0.334117 -0.120977 1.24546
-0.257168 -0.236938 1.3572
-0.340156 0.00647166 1.01163
0.0464118 -0.162782 1.26163
-0.635326 0.0205908 0.884956
-0.497941 0.157196 0.868451
-0.40654 0.0598502 1.00194
-0.115523 0.219739 0.694822
0.0935792 0.301303 0.686516
0.0694808 -0.115534 1.2391
-0.594599 0.110701 0.910875
-0.681865 -0.0490838 0.927694
0.0993299 -0.0766762 1.11534
-0.199377 0.262294 0.73486
0.127628 -0.0183228 0.999933
-0.228926 -0.182719 1.28351
-0.316189 -0.0106299 1.03541
-0.680181 -0.224703 1.05064
-0.34211 -0.266784 1.28529
-0.615895 0.156112 0.863444
-0.436203 -0.151104 1.17344
-0.401494 0.215295 0.776164
0.124639 0.268202 0.675653
-0.441948 0.0193195 1.07137
-0.351004 -0.186911 1.27933
-0.286564 0.0911684 0.981976
-0.0860805 -0.0278294 1.12248
-0.0292848 0.249455 0.779635
-0.079384 0.202205 0.831965
-0.297676 0.120994 0.908444
-0.0977512 -0.14654 1.23486
-0.264564 -0.20615 1.2984
0.034895 0.00290922 1.04933
0.381883 -0.00998372 1.08556
0.453044 -0.0465124 1.16003
-0.450603 -0.0201962 1.06457
0.00837769 0.292672 0.722076
-0.637462 -0.145675 1.08348
0.210199 0.0180636 0.950483
0.1496 -0.327217 1.33306
-0.00630696 0.245917 0.68822
0.257664 0.0627939 0.921633
0.149815 0.176085 0.838074
-0.0806756 0.00782594 1.06115
-0.615111 -0.119447 1.09898
0.243402 0.222748 0.75881
-0.135645 0.0136272 1.03231
-0.0343781 0.0223896 1.04003
-0.562768 0.230326 0.805378
-0.0414915 0.231652 0.693659
-0.111629 0.0377248 0.842575
-0.235244 0.00590048 1.02421
0.0059172 0.290469 0.70756
-0.673197 0.0304372 0.910316
0.125432 0.32086 0.640805
-0.693593 -0.120921 0.95751
-0.59101 0.0346792 0.998327
0.15166 0.202109 0.821154
-0.352098 0.226687 0.760454
-0.655381 0.167642 0.808911
-0.33608 0.00304582 0.999536
-0.245723 -0.250922 1.36089
-0.410501 -0.143988 1.2257
-0.248362 -0.000996821 1.03965
-0.579595 0.165779 0.743033
0.254665 0.198747 0.793744
-0.00483322 0.053588 1.0189
-0.0371427 0.0887257 0.987259
0.266289 0.0369391 0.89686
0.409171 -0.0110524 1.11765
0.0649275 0.0838791 1.00148
-0.459041 -0.214847 1.18624
0.227533 0.212099 0.776719
-0.632583 -0.0191819 1.02002
-0.0145129 0.0528175 1.00554
0.205077 -0.233857 1.43216
0.172245 0.228156 0.738917
-0.521126 0.079641 0.949047
0.117161 0.214291 0.84142
0.148959 0.0593417 0.960124
-0.354269 0.215032 0.681345
-0.174822 -0.0355905 0.806582
-0.10966 0.253611 0.747919
-0.148181 0.270902 0.630527
0.128455 0.322324 0.643666
0.0223669 0.308064 0.747077
-0.0447329 0.291409 0.746849
0.0682618 -0.00406929 1.01493
-0.35377 -0.185165 1.29284
-0.136842 0.091447 0.979356
0.0492418 0.301417 0.645073
-0.239239 -0.144541 1.18573
0.413048 -0.123968 1.06124
0.0685608 -0.0672345 1.20596
0.0860654 0.130925 0.950493
-0.191294 0.258632 0.747077
-0.217288 -0.0890864 1.18308
0.123655 0.199251 0.862957
-0.533877 -0.257148 1.30419
-0.460584 0.0329779 1.04741
-0.293582 0.0672044 0.97788
0.14297 -0.150579 1.24723
0.4764 -0.059074 1.1417
-0.0155864 -0.0572371 1.13616
-0.0700048 0.0563745 1.00137
-0.0283386 0.0181331 1.05257
-0.189176 0.222025 0.776874
-0.120765 0.198764 0.833362
-0.674405 -0.142088 1.04503
-0.511666 0.09464 0.965707
-0.53519 -0.292299 1.19835
-0.353423 0.2308 0.765287
-0.0121568 -0.0331459 1.12838
0.0308401 0.306223 0.700458
0.0820325 0.194939 0.860109
-0.262039 -0.0110539 1.06546
-0.470969 -0.112419 0.961558
-0.625938 0.068248 0.875225
-0.339688 0.218776 0.667664
0.285041 0.178596 0.811063
0.0843364 0.178862 0.887139
-0.211435 0.261473 0.637571
-0.50279 -0.143633 1.0312
0.134022 -0.057409 1.07141
-0.438532 0.0188972 1.03704
0.0750955 0.309296 0.675942
0.0360348 0.302519 0.699869
-0.399051 0.212518 0.696546
-0.433295 0.231172 0.797408
-0.660548 0.16298 0.791859
-0.354894 0.0648464 1.00387
-0.624268 0.184514 0.799338
-0.647695 -0.0152527 0.911318
-0.68044 0.0563637 0.879531
-0.506448 0.135697 0.896516
-0.693983 -0.123797 0.954071
-0.439569 0.0238516 1.04576
-0.692111 0.0316721 0.882946
0.0425862 0.271611 0.687475
0.029903 0.303378 0.700927
0.102164 0.238583 0.731557
0.435776 0.0125147 1.01039
0.12119 0.118747 0.932342
0.166135 0.116516 0.902566
0.265032 0.211032 0.79249
0.208972 -0.236383 1.24916
-0.212035 0.259015 0.631846
-0.457921 0.0267268 1.01097
-0.445679 -0.0918872 1.22823
-0.396129 0.00982271 1.01573
-0.447112 0.173679 0.782819
-0.494353 0.224297 0.79487
-0.164717 -0.0935677 0.937359
0.0386316 0.291713 0.638808
-0.401112 0.0994337 0.928389
-0.309448 0.193824 0.810801
-0.656626 -0.0147522 0.936741
-0.671356 0.0292396 0.898174
0.129998 0.236864 0.75338
-0.643656 -0.0663297 1.06004
-0.291619 0.145313 0.862442
-0.206809 -0.0255495 1.08697
-0.355409 0.226473 0.74976
0.0598843 0.174815 0.886367
-0.588496 0.135048 0.776261
-0.32793 0.0334684 0.978169
-0.250022 0.0225701 1.13552
0.307412 0.120667 0.883583
0.292642 0.194726 0.799217
-0.249812 0.0297727 1.05884
-0.0592003 -0.274936 1.45893
-0.369495 0.0673003 0.993221
-0.224835 -0.139179 1.17553
0.194169 0.246571 0.721869
-0.246095 -0.253373 1.35681
0.45731 0.0162621 1.03755
-0.630931 -0.0208443 1.04317
-0.673465 0.0303869 0.91775
0.22088 0.24706 0.793678
-0.252294 -0.0860601 1.17035
-0.692202 -0.136142 1.01088
-0.0587693 0.253104 0.772422
-0.411381 -0.172177 1.2598
0.15793 -0.268156 1.34125
-0.354966 -0.131953 1.19501
-0.323156 -0.166566 1.20294
-0.623745 0.00813895 1.01037
0.0831086 -0.0584152 1.10402
-0.267801 -0.122321 1.15485
-0.646642 0.0745233 0.853481
-0.0596065 -0.111626 1.19203
-0.504609 0.163777 0.791054
0.303109 0.175147 0.832653
0.0741836 -0.0943073 1.27205
-0.11547 0.220174 0.6956
0.305251 0.12025 0.830136
-0.0968109 0.220318 0.801129
-0.631798 -0.0902901 1.08418
-0.670823 -0.16883 1.04941
-0.438984 0.0234028 1.03327
0.551368 -0.214858 1.34296
0.317561 0.123221 0.843834
-0.331416 -0.22733 1.29105
0.360895 -0.133033 1.23726
-0.528468 0.12897 0.909993
0.156931 0.295857 0.67118
-0.158335 -0.141413 1.24945
-0.213287 -0.221192 1.33067
0.442887 -0.0954291 1.16011
0.189724 -0.182748 1.27715
0.175832 0.0915017 0.949675
0.523195 -0.0876254 1.14278
0.291139 -0.263326 1.21351
-0.510028 0.170638 0.810618
0.0957854 0.173795 0.886161
-0.569341 0.0553387 0.950077
0.229831 -0.19 1.18945
-0.282772 -0.00220526 1.04447
-0.233301 0.0810184 0.97809
-0.331867 -0.227478 1.27488
-0.290112 0.0658513 0.981164
-0.533916 0.130347 0.877158
-0.0444047 0.108211 0.972555
-0.31997 0.160813 0.827295
-0.329806 0.208222 0.682945
-0.43073 0.167231 0.739176
-0.373046 0.259332 0.730828
-0.303103 0.184859 0.731257
-0.171613 0.025947 1.07
-0.477396 0.206704 0.735764
-0.398746 0.206164 0.677625
-0.266306 0.210189 0.685656
-0.284456 0.00682833 0.960688
0.130778 0.313016 0.677456
0.106335 0.253397 0.711332
0.273602 -0.0333341 1.03466
-0.19123 0.233265 0.700928
-0.602323 -0.200216 1.1398
-0.129778 -0.205344 1.3547
-0.529465 -0.321648 1.19172
-0.577021 -0.0176478 1.08612
-0.646615 0.0473639 0.893337
-0.388419 0.212719 0.767468
0.450183 -0.0947412 1.15736
-0.155558 0.208365 0.791962
-0.00968631 0.286342 0.703196
-0.19001 -0.109165 1.15901
0.0848651 0.255262 0.70865
-0.265251 0.249641 0.755336
-0.305922 0.189073 0.732661
-0.688153 -0.102138 0.998078
-0.529054 -0.188507 1.24076
-0.47281 0.0293342 1.05361
-0.706206 -0.0111061 0.914061
0.308541 0.121442 0.833875
-0.268959 -0.210773 1.3074
-0.329142 -0.0648229 1.13499
0.320592 0.161228 0.854024
-0.435988 -0.162232 1.24932
-0.452867 -0.0163859 1.06637
0.307151 -0.152844 1.23559
-0.683604 -0.162645 1.01037
-0.687175 -0.223475 1.06977
-0.51344 -0.214365 1.23271
-0.572065 0.0347332 0.95197
0.306095 0.178407 0.839178
-0.534147 -0.314672 1.20331
-0.40359 0.223002 0.802321
0.450304 0.0116035 1.03356
0.0761757 -0.0368495 1.00034
0.11157 0.240143 0.731059
-0.689599 -0.1043 1.0074
0.0722917 0.292168 0.680645
-0.0772269 0.207696 0.824396
0.162845 0.155055 0.855309
-0.176556 0.217874 0.79902
0.131143 0.284841 0.678034
-0.593317 -0.0942033 1.0392
-0.291146 0.0587267 1.00793
-0.331142 0.0376238 0.970378
-0.0709701 -0.197741 1.35013
0.00535487 0.192125 0.858338
-0.460559 -0.0715521 1.22408
-0.11705 0.16956 0.87423
-0.270912 0.243159 0.73807
-0.476591 0.041239 1.03141
-0.253214 -0.0148845 1.09145
0.129661 0.0147867 1.03873
-0.246388 -0.0668483 1.17801
-0.617826 -0.305122 1.03573
-0.381241 0.0689207 0.988485
-0.478551 -0.169401 1.16468
-0.658798 -0.232444 1.11457
-0.481184 -0.135851 1.22331
-0.571709 -0.171223 1.18698
0.359538 -0.118391 1.20299
-0.687218 -0.13726 0.986717
-0.409345 0.0134561 0.994339
-0.0939039 0.216747 0.805128
-0.643465 -0.208781 1.08378
-0.380285 0.0193992 0.999951
0.214242 0.189347 0.809579
0.487545 -0.0698595 1.14275
0.12829 -0.182475 1.30823
-0.520738 -0.124426 1.15328
-0.140905 -0.270102 1.43979
-0.622499 0.0967121 0.890909
-0.672712 -0.137138 1.05336
0.226754 -0.173427 1.25907
-0.268428 0.122752 0.902829
-0.422634 0.181794 0.800498
0.524544 -0.127748 1.22204
-0.605634 -0.122157 1.1085
-0.36525 0.189354 0.80491
-0.222253 0.00503855 0.953884
0.430306 -0.0536124 1.11337
0.0783137 0.104605 0.962824
-0.1923 -0.0199104 1.08809
-0.596868 0.116699 0.923845
-0.68732 -0.203092 1.05467
-0.673518 -0.136364 1.03838
-0.0209242 0.0841745 0.990769
-0.237588 -0.0134056 1.06234
0.15578 0.129313 0.886845
-0.443044 -0.169801 1.24625
-0.461733 -0.0840726 1.15894
-0.228817 -0.1808 1.28565
-0.679776 0.0556886 0.876953
-0.581843 -0.0326107 1.15632
-0.152822 0.0312989 1.01345
-0.147207 -0.062839 1.1253
0.0427254 0.0523319 0.989539
0.156814 0.232312 0.812409
-0.164507 0.24565 0.715404
-0.281356 -0.0022797 1.04898
-0.489448 0.144471 0.86391
-0.226717 -0.1782 1.29148
-0.382982 0.135733 0.879014
0.188679 0.153594 0.844387
-0.0391439 0.224361 0.806026
-0.0213959 0.0530213 0.978081
0.437342 0.00716404 1.03232
-0.300553 -0.0684126 1.17642
-0.691534 -0.103992 1.01232
0.018267 -0.0663412 1.06066
-0.459666 0.154562 0.756488
-0.59748 -0.199529 1.20184
-0.296523 -0.181665 1.25558
-0.567207 -0.160121 1.12789
-0.328022 0.0252891 0.988407
0.29892 -0.0239941 1.05829
-0.0497992 0.242492 0.699008
0.137242 0.113366 0.897617
-0.0839119 -0.166733 1.31324
-0.138924 0.0987838 0.967572
-0.411448 -0.310106 1.24438
-0.528069 -0.267144 1.22562
-0.51802 0.10755 0.935021
0.122084 0.242123 0.79436
-0.461182 -0.221994 1.26508
0.0161951 -0.0100481 0.761379
-0.649978 -0.156415 1.088
-0.372185 -0.134735 1.25092
-0.404427 0.0971843 0.925874
0.259028 -0.0164828 1.00891
0.485152 -0.080754 1.17166
-0.221344 0.181622 0.836507
-0.146617 0.0990983 0.966253
0.49843 -0.137536 1.20531
0.235341 0.0509338 0.927618
-0.380637 0.0698586 0.988984
-0.295348 -0.0218301 1.03989
-0.319772 0.0228291 0.993524
-0.54844 0.111995 0.926651
-0.0772617 -0.200433 1.35469
-0.407863 0.026802 0.997781
-0.578238 0.0467845 1.02268
0.0195656 -0.254721 1.42423
-0.0478933 0.264686 0.725116
-0.0400057 -0.151395 1.24475
0.149749 0.131824 0.873499
-0.440329 -0.135817 1.2249
-0.312605 0.191126 0.811026
0.462157 0.0310095 1.00313
0.389136 -0.0343895 1.09962
0.12284 0.113326 0.937737
-0.0115044 0.248298 0.722763
-0.251106 0.227197 0.704338
-0.532016 0.0725544 0.975871
-0.645714 -0.126218 1.08518
-0.426038 0.153253 0.867383
0.0209789 -0.246026 1.42343
-0.574072 -0.0244143 1.06975
-0.449161 0.170048 0.83261
0.319425 -0.178412 1.24083
0.107284 0.105652 0.873444
-0.140161 0.274001 0.704334
0.560479 -0.0930095 1.11216
0.267712 0.188581 0.811653
-0.386269 -0.179775 1.27862
0.541685 -0.194166 1.28408
-0.498246 0.0937353 0.928684
-0.147134 0.216935 0.812329
-0.143571 -0.115832 1.20515
-0.589434 -0.0201276 1.12701
0.308762 -0.152094 1.2361
-0.362828 0.182927 0.829063
0.559705 -0.0458231 1.11691
-0.639299 -0.205621 1.1355
0.194626 0.154378 0.861281
-0.264032 0.125787 0.905543
-0.339421 -0.0108956 1.08073
-0.463487 0.0881717 0.945615
0.21272 0.190857 0.802638
0.121059 0.114065 0.940071
0.0550378 -0.0858191 1.1577
-0.199696 0.0880081 0.962225
0.441646 -0.0493277 1.15423
0.643205 -0.0450123 1.09218
-0.341873 -0.188388 1.30972
-0.562924 -0.120671 1.16468
0.0422299 0.137487 0.929445
-0.560036 -0.250682 1.17492
0.60162 -0.0444009 1.06804
-0.457197 0.00949128 1.01051
0.445872 -0.0413403 1.06835
0.484124 -0.188759 1.25061
-0.12642 0.0152277 1.0288
-0.133322 0.0128921 1.11351
-0.5783 0.087008 0.960592
-0.311294 0.150483 0.840985
-0.487804 0.143256 0.862539
-0.323861 -0.00571979 1.05847
-0.0232632 0.226819 0.814562
-0.128294 0.0113207 1.03198
0.0952535 0.168182 0.844471
-0.306576 0.195776 0.814726
-0.497024 -0.260889 1.34083
-0.235231 -0.144114 1.19051
-0.547552 -0.0420532 1.16217
-0.465019 -0.17566 1.21151
0.194887 -0.140313 1.21553
-0.251202 -0.140252 1.16259
0.1258 -0.251893 1.31145
-0.0804942 -0.0754874 1.10591
0.0729695 0.0875312 0.95867
0.0637939 0.0847332 0.970213
0.229313 0.106015 0.793009
0.202565 -0.273674 1.21805
-0.50752 0.142371 0.880455
0.0732953 0.0969787 0.981646
-0.00808985 0.15441 0.902561
-0.0586259 -0.111528 1.16671
-0.477031 0.105708 0.911841
-0.554938 0.117671 0.92384
-0.283633 0.147326 0.851207
-0.0103667 0.152154 0.901564
-0.288271 0.142714 0.84548
-0.290653 0.0189663 1.00425
-0.113925 0.289753 0.673488
0.296258 0.18414 0.818703
-0.563486 -0.254894 1.15841
-0.517778 0.0151548 1.08115
-0.325858 0.151527 0.850691
-0.411822 0.0982305 0.940923
-0.371147 0.216944 0.774665
-0.290917 0.228769 0.677973
0.271844 -0.106719 1.25477
0.142928 0.0408523 0.964068
0.0660773 0.0815382 1.00505
-0.573697 0.0152311 1.02688
-0.034509 -0.184262 1.27477
-0.138937 0.291307 0.713089
-0.426764 0.153186 0.864298
-0.112604 0.275337 0.698579
-0.572596 0.142189 0.838504
-0.315349 0.217365 0.771489
0.306895 0.119616 0.878191
0.0662007 0.292511 0.678199
-0.566381 -0.0126332 1.11502
-0.0939323 0.251739 0.782338
0.0870383 0.177867 0.887716
-0.67661 0.0488234 0.895716
-0.460202 -0.240159 1.24893
-0.622907 -0.157875 1.14676
0.463594 -0.0854969 1.1548
0.160744 -0.146179 1.23386
-0.275336 -0.115886 1.2519
-0.331509 0.0393488 0.968035
-0.456511 0.088855 0.938202
-0.0304279 -0.130687 1.20571
-0.350288 0.219486 0.674554
-0.466442 0.0328737 1.03961
-0.446783 -0.247503 1.26566
0.252605 0.0413939 0.88576
-0.381761 0.214637 0.760348
0.119336 0.141321 0.905362
-0.583666 0.0993547 0.959067
0.463945 0.0282683 1.00295
-0.288162 0.0805579 0.958486
-0.30304 0.0923774 0.956473
-0.37241 0.0180547 1.00136
-0.313709 0.237395 0.746358
-0.243112 0.112019 0.928204
-0.224284 0.160469 0.864877
-0.405571 0.0203296 1.00926
-0.302795 0.239608 0.760045
0.0495802 -0.0709686 1.10418
-0.471527 0.184493 0.785318
-0.631355 -0.0360224 1.10644
-0.561357 -0.0107326 1.12386
-0.501555 -0.255921 1.31422
0.14952 -0.197012 1.32938
-0.449159 -0.188267 1.23698
-0.510197 0.144454 0.863484
-0.0632395 0.273489 0.678788
-0.458839 -0.244214 1.24313
-0.670506 -0.0210204 1.00502
0.149005 -0.0242398 0.923319
0.533711 -0.0577706 1.1111
-0.553129 -0.213213 1.2174
0.552748 -0.00747513 1.00743
-0.227122 0.206544 0.830194
-0.50403 0.141811 0.864952
-0.48909 -0.128238 1.22277
-0.246116 0.0844859 0.965163
-0.174353 0.242808 0.704605
0.0619944 0.173651 0.886137
-0.171186 0.24367 0.708208
-0.396745 0.0108525 1.01635
0.00121049 -0.0655602 1.0379
-0.309554 0.239489 0.753365
-0.0724996 -0.074422 1.10501
0.118827 0.00136861 1.0727
-0.122947 0.259303 0.649264
-0.671615 -0.0224936 0.994493
-0.0124039 0.26623 0.779487
-0.534206 -0.122883 1.20973
0.326447 0.0805459 0.798333
0.139761 0.224261 0.82152
-0.64317 -0.0691636 1.10551
-0.27101 0.121274 0.899672
0.487309 0.0678375 0.875136
-0.412753 -0.294329 1.26656
-0.553041 -0.259209 1.22045
0.176197 0.0947119 0.764785
0.0488368 -0.317942 1.40488
-0.470393 -0.146336 1.23754
-0.626656 -0.0400664 1.12898
0.120052 0.113972 0.931494
-0.0908253 0.285613 0.708665
-0.368298 0.128991 0.897306
0.0880556 0.248694 0.7985
-0.304959 0.0881583 0.959269
0.149505 0.172552 0.833815
-0.577859 0.0454453 1.00429
-0.159647 0.187715 0.815248
-0.379949 0.156572 0.861592
-0.330413 0.11771 0.899463
-0.372944 0.0177094 0.99909
-0.291721 0.229431 0.762014
-0.057339 0.350491 0.630003
-0.244977 0.243153 0.686886
-0.146603 -0.0385007 0.81439
-0.461043 0.154436 0.754112
-0.248097 -0.00311496 1.03883
0.027971 0.178609 0.866653
-0.325548 -0.00826945 1.0485
-0.512851 -0.0136258 1.12771
-0.265153 0.256131 0.648609
0.672332 -0.0493061 1.06355
-0.137845 0.0373095 1.02621
-0.53123 0.0159896 1.07498
-0.446859 -0.0146874 1.10553
-0.290287 -0.17032 1.28282
0.00185916 0.280045 0.739794
-0.386691 0.209871 0.752249
-0.238804 -0.211799 1.29114
-0.626229 -0.0896238 1.14758
0.0858629 0.121782 0.947528
-0.292925 -0.0874604 1.21705
-0.495056 -0.0565083 1.2371
0.545898 -0.133649 1.24265
-0.0105973 -0.0685181 1.0249
-0.237775 -0.143562 1.18826
0.212095 0.0179236 0.956684
-0.302928 0.231506 0.690992
-0.139384 0.0369277 1.02278
-0.0981791 0.317096 0.607061
-0.282911 0.23578 0.772957
-0.457777 0.166699 0.759798
-0.290635 0.236715 0.651239
-0.320238 0.0222998 0.993039
-0.283842 0.225822 0.693373
-0.527356 0.109451 0.915503
-0.45826 0.165836 0.75763
-0.273327 0.0908755 0.955363
-0.176648 0.0601317 1.0118
0.434903 0.0265862 1.00133
-0.417967 0.00829553 1.02325
0.202981 0.250884 0.728147
-0.318824 -0.166438 1.21232
-0.441998 -0.0181454 1.112
-0.626187 -0.0141721 1.09576
-0.52288 -0.206283 1.23649
-0.453115 -0.158113 1.23764
0.777592 -0.060308 1.03522
-0.483915 0.0556602 1.0407
0.562075 -0.0590321 0.921111
-0.0606989 0.271695 0.748778
-0.461538 -0.0412355 1.13655
-0.337589 0.0331292 0.964339
-0.635263 -0.023231 1.01193
-0.313476 0.205352 0.802812
0.673388 -0.0193032 1.00995
-0.58164 0.0990294 0.963655
-0.304823 0.143682 0.8893
0.0794305 0.175198 0.880317
-0.0757425 0.284173 0.675086
0.155047 -0.199399 1.34097
-0.363116 0.149579 0.874224
-0.228213 -0.0868073 1.16698
0.110316 -0.0513084 1.04316
-0.570402 0.00268667 1.09878
0.145155 0.107289 0.905568
-0.294061 0.158447 0.851532
-0.458796 0.154514 0.755567
-0.0403832 -0.00951912 1.08562
-0.163655 -0.00305011 1.07302
-0.162903 -0.0403972 0.795457
-0.209331 0.00245983 1.11743
-0.181934 0.000557139 1.1171
-0.682607 0.0219502 0.965955
-0.0727002 0.201882 0.836162
-0.228723 0.00744892 0.810342
-0.282999 0.0678337 0.98696
-0.407772 0.0591469 0.999008
-0.142713 0.0765658 1.06241
0.117265 0.13782 0.908376
-0.357139 -0.157401 1.28903
-0.301341 0.140541 0.842507
-0.301489 -0.0119245 1.0562
0.0782963 0.289662 0.707644
-0.616031 -0.00791898 1.0955
-0.607752 -0.0235602 1.12374
-0.284511 -0.0234006 1.10739
-0.358004 0.00853018 1.03039
-0.591455 -0.0176726 1.13117
0.0329811 0.315049 0.694709
-0.331599 0.204311 0.792372
0.13045 0.264044 0.721509
-0.367505 -0.00966196 1.05802
-0.139945 -0.224607 1.38987
0.633807 -0.0534782 1.00874
0.542144 -0.0920644 1.08106
-0.176508 0.0606713 1.01097
-0.121231 0.262528 0.73466
-0.224343 0.234196 0.719028
0.175209 -0.00548492 1.03096
-0.228597 -0.117049 1.17635
-0.271889 -0.120349 1.20835
-0.48412 -0.128413 1.24326
-0.441361 -0.150606 1.18599
-0.44801 0.175662 0.829242
-0.412905 -0.159227 1.2651
-0.60592 -0.122945 1.11976
0.484608 -0.115927 1.12055
0.147859 0.191826 0.845034
-0.307058 0.221024 0.691111
-0.143481 0.036424 1.01867
-0.253577 0.000127149 1.03591
-0.318321 0.169187 0.832118
-0.406639 0.0429627 1.03443
-0.28927 0.0168093 1.00492
-0.34984 -0.0128771 1.06151
-0.570628 0.0250221 1.06462
-0.342161 -0.159443 1.23974
-0.450207 -0.159925 1.24485
-0.48399 0.0554877 1.04055
0.121391 0.100921 0.91861
-0.427009 0.00698123 1.02428
-0.30067 -0.179941 1.28482
-0.482096 0.0554183 1.04433
-0.0713463 -0.200593 1.36529
0.435475 0.0724209 1.01219
-0.454616 0.150942 0.841046
0.240808 0.108213 0.845977
0.118965 -0.0694799 1.17778
-0.0753544 0.261143 0.738428
-0.0417514 0.103416 0.957994
-0.412327 -0.0253896 1.12646
-0.0589287 -0.106362 1.2049
-0.634874 -0.0923668 1.08898
-0.0952683 0.0683443 1.01555
-0.0813706 0.00968272 1.05122
0.11133 0.0866001 0.954175
0.169835 0.0114756 0.98468
0.428131 -0.106392 1.18107
-0.17812 0.0890869 0.981933
0.122242 0.139788 0.909051
0.171655 0.275292 0.699005
-0.607273 -0.122257 1.16893
-0.101273 0.277472 0.670686
-0.180539 0.226376 0.722417
-0.452923 0.173427 0.818481
0.195966 0.210654 0.76952
-0.578529 0.0302884 1.06088
-0.247193 0.109205 0.925284
0.121959 0.241679 0.734259
-0.181153 0.248444 0.733295
-0.452389 0.0483667 1.02611
-0.22613 0.238286 0.800364
-0.173411 0.243524 0.711533
-0.288847 -0.144393 1.21193
-0.163189 -0.108874 1.20948
-0.455787 0.0901063 0.937265
-0.665382 0.00952098 0.906565
-0.455175 0.0445581 1.02153
-0.680744 0.00575238 0.887433
0.269911 -0.208704 1.39651
-0.210568 -0.190657 1.29457
-0.444473 -0.245681 1.24851
-0.437814 0.186242 0.823171
-0.189024 0.247233 0.717919
0.426263 -0.00950463 1.08467
0.541472 -0.215878 1.31062
-0.436307 -0.166807 1.25362
-0.0108342 0.152581 0.900462
0.0613859 0.277207 0.700245
-0.494117 0.159922 0.83821
-0.570532 0.0798152 0.992041
-0.46003 0.153976 0.754223
-0.355968 0.124936 0.902763
-0.332518 0.0783338 0.97454
-0.229715 0.244949 0.800499
-0.228887 0.200989 0.810755
-0.286339 0.0169966 1.00552
-0.211052 -0.0243817 1.09004
-0.136566 0.273461 0.812865
-0.260736 0.0835617 0.968543
-0.162124 0.263906 0.735958
0.248015 0.126691 0.906627
0.0586092 -0.322733 1.35089
0.523269 0.0480824 0.92929
-0.415829 0.151547 0.842578
-0.268544 -0.0877205 1.18453
-0.330564 0.0770919 0.975621
0.481745 -0.0160845 0.957627
0.0630495 0.280137 0.760427
-0.221867 0.248994 0.706174
-0.400092 0.0117192 1.0154
-0.457001 0.0504874 1.01875
-0.345034 0.0108135 1.01493
0.398711 -0.102145 1.16378
-0.364063 -0.144648 1.31169
-0.327275 -0.231465 1.30088
-0.291367 0.234659 0.652708
-0.366305 0.0013395 1.02825
-0.488663 0.103238 0.897321
-0.0534717 0.291158 0.697477
-0.547081 0.115323 0.920707
-0.447821 -0.188966 1.24061
-0.289416 -0.233226 1.31187
-0.590418 0.0973702 0.945215
0.58123 0.00467433 1.01635
-0.381302 0.0679636 0.989487
-0.348085 -0.24813 1.28583
-0.226625 -0.0307076 1.06926
-0.45239 0.0140727 1.02633
-0.469401 -0.163542 1.23052
-0.576068 -0.0258008 1.1432
-0.343369 -0.2487 1.29618
-0.0793167 -0.0282977 1.101
0.0979967 0.0326999 0.969846
-0.278605 0.167735 0.862613
-0.275712 -0.202638 1.29905
0.282228 0.152582 0.844008
-0.245387 0.0552374 0.965071
-0.31009 0.134292 0.897793
-0.0886775 -0.00783538 1.05164
-0.365703 0.0122687 1.02677
-0.540478 0.128572 0.870723
-0.518339 0.0130887 1.07788
-0.274384 0.129354 0.828988
-0.621596 0.0617947 1.07401
0.0474197 -0.0173005 1.06165
-0.572883 -0.180939 1.17542
-0.575692 -0.177823 1.14333
-0.272099 -0.115947 1.19267
-0.603788 0.000333393 1.09987
0.190326 0.252987 0.712108
-0.448551 -0.176496 1.24397
-0.326751 0.256707 0.75201
0.385696 0.103292 0.830325
-0.168669 0.0313547 1.01056
0.0761077 0.261684 0.74586
0.314757 -0.13929 1.2264
-0.421957 -0.137704 1.2638
-0.288211 -0.100911 1.23067
-0.344558 0.00197387 1.02911
-0.407407 0.156934 0.854054
-0.358439 -0.0600052 1.16323
0.108017 0.226487 0.741749
-0.350103 0.112267 0.930399
-0.507566 -0.150506 1.21545
-0.195751 0.019585 0.98171
-0.400113 0.0141018 1.013
0.0710837 0.281449 0.701319
-0.371353 0.0189263 1.00273
-0.164916 -0.108081 1.20872
-0.46599 0.0865066 0.938598
-0.148876 -0.223097 1.37682
0.411222 0.108407 0.831541
-0.388847 0.131467 0.894358
0.58714 0.00792482 1.01774
-0.323751 -0.0203896 1.07397
0.168239 0.218999 0.755174
-0.266039 0.0695701 0.986612
0.298847 -0.308493 1.20008
-0.309639 0.192442 0.814419
0.139922 0.191161 0.837875
0.26707 -0.310832 1.17994
-0.223528 0.0039735 1.03607
0.0323023 0.0286232 1.02292
-0.234803 0.29123 0.674776
-0.214441 0.239464 0.724823
-0.239857 0.288862 0.672442
-0.59229 0.0790987 0.925525
-0.0833372 0.307286 0.66618
-0.296969 -0.00302789 1.0405
-0.353802 0.00353583 1.00277
-0.0538392 0.0718965 1.00269
-0.574605 -0.0263498 1.1425
-0.368133 0.00255824 1.0253
0.449641 -0.0467124 1.15878
-0.499802 0.0121698 1.09317
-0.0105321 0.11974 0.938103
-0.344701 -0.143004 1.24476
-0.319317 0.00397886 1.02237
-0.562335 0.0726568 1.02708
-0.345268 -0.0138732 1.0626
0.391964 0.208589 0.790514
-0.072672 0.0105553 1.06255
-0.56454 -0.160703 1.18419
-0.4804 -0.170215 1.27332
-0.429034 0.149939 0.861247
-0.242251 0.25483 0.716145
-0.446662 -0.0381639 1.16853
-0.461144 -0.00855827 1.11207
0.173287 -0.234047 1.22149
0.550733 -0.212184 1.30402
0.141861 0.0777784 0.913325
-0.430846 -0.0628994 1.2111
0.319485 0.161686 0.841414
-0.501998 0.0100023 1.08958
-0.451159 -0.0380093 1.15824
-0.198918 0.0885161 0.970234
-0.414605 0.0395491 1.02519
-0.298926 -0.0116043 1.05773
-0.386515 0.0314641 0.978574
-0.611483 0.0302978 1.06979
-0.254428 0.142787 0.840657
-0.0484298 0.256684 0.762166
-0.342402 0.00944499 1.01587
-0.325411 0.0405444 0.976439
-0.0946345 -0.0300182 0.967276
-0.247613 0.0505748 0.947873
-0.590811 0.0501047 1.03355
-0.356598 0.0105238 1.01753
-0.345097 -0.0547394 1.16541
-0.624891 -0.0394009 1.13488
0.404879 0.247918 0.768324
-0.356972 -0.0708114 1.24807
0.426084 -0.00823365 1.085
0.24663 -0.303742 1.1643
-0.224848 -0.133451 1.20133
0.0173773 -0.301369 1.38333
-0.589122 0.0416702 1.02998
-0.30663 -0.0194726 1.08194
0.119199 0.14075 0.905458
-0.391443 0.122697 0.909314
-0.461463 -0.213207 1.26245
0.504549 0.0276597 1.01547
-0.038332 0.0396748 0.992017
-0.327255 0.120393 0.901602
-0.225537 -0.167576 1.28596
0.014707 -0.299686 1.38329
0.172586 0.0718883 0.926183
-0.509157 0.139649 0.870653
0.00543023 -0.173617 1.25477
-0.531983 -0.040381 1.1763
0.555055 -0.0406382 1.11345
-0.127839 0.0137204 1.02515
-0.390685 -0.00882631 1.10246
-0.594795 -0.097276 1.18155
-0.590836 0.0774205 0.922448
0.491898 -0.0100977 1.01601
-0.494068 -0.218962 1.2653
-0.349374 -0.26716 1.3166
0.452628 -0.0596226 1.14211
-0.444692 -0.176877 1.2422
-0.137959 -0.262676 1.42404
-0.600477 -0.1237 1.17208
-0.0803447 0.198063 0.834801
-0.243624 0.0923821 0.99305
-0.288556 0.264405 0.738726
-0.140765 0.247285 0.79015
-0.150007 0.2296 0.805703
-0.293108 0.241344 0.765597
-0.384649 0.129351 0.899374
-0.176694 0.243605 0.79342
-0.279772 0.0156074 1.00904
-0.275702 0.251012 0.777033
-0.233178 0.268602 0.687477
0.144685 0.181889 0.807673
-0.0741803 -0.121398 1.24545
-0.505605 -0.214266 1.23937
-0.624443 -0.0237124 1.13077
0.773677 -0.0371196 1.06164
-0.546503 -0.0657486 1.19957
0.578637 0.0831441 0.834673
0.199882 0.118217 0.885681
0.505783 0.171996 0.776415
-0.628223 -0.0335943 1.125
0.612573 0.00951148 0.828603
-0.515981 -0.0649615 1.19837
-0.614239 -0.00565686 1.10465
0.0054014 -0.179092 1.264
-0.205921 0.227873 0.774898
-0.3436 0.00700551 1.01484
-0.535187 -0.124814 1.20742
0.103095 0.16132 0.818721
0.372919 -0.108805 1.19603
-0.568029 0.0619059 1.04732
0.512853 -0.0909005 1.07316
0.181291 -0.137147 1.20166
-0.410537 0.0269046 0.992458
0.271642 0.215703 0.783837
-0.370507 0.187945 0.796117
0.202722 0.0678076 0.948758
-0.243359 0.252167 0.712369
-0.503628 0.130219 0.865722
-0.187049 0.238821 0.781146
-0.233957 -0.0270224 0.787186
0.815616 0.0805525 0.857897
-0.470228 -0.207363 1.24748
0.0552565 -0.294096 1.31128
-0.407447 -0.287913 1.27791
0.236638 0.0479056 0.878024
0.777493 0.111664 0.83063
-0.0753996 -0.00346369 1.0568
-0.613297 -0.00382504 1.10963
-0.0846173 -0.196227 1.35953
-0.0232709 0.0530035 1.00758
-0.0175053 -0.150981 1.25072
-0.0556039 -0.15519 1.27398
-0.239893 0.257685 0.712174
-0.425797 0.0180086 1.0278
-0.207733 -0.138012 1.20084
0.236928 -0.121407 1.21537
0.050116 -0.0819227 1.1387
-0.566301 -0.0219866 1.18642
0.0493327 -0.0833557 1.13903
-0.309022 0.114534 0.913961
-0.528012 0.10765 0.915738
-0.234294 0.114787 0.936206
-0.273379 0.254294 0.70352
-0.330713 0.239776 0.773762
0.16705 0.0624197 0.926309
0.44999 0.100733 0.855497
0.441791 0.0751314 0.899778
0.242589 -0.11253 1.21924
0.203617 -0.121838 1.20479
-0.399364 0.158517 0.862476
0.29194 0.186318 0.820071
-0.412995 -0.0888989 1.274
0.0288149 0.252615 0.736537
-0.132724 -0.148838 1.21946
0.0166327 0.0253214 1.01436
0.0559898 0.0366589 1.00107
-0.309834 0.00602474 1.02765
-0.0168191 0.272425 0.769361
-0.284146 -0.0153845 1.06541
-0.291334 0.199413 0.821781
-0.248627 0.258097 0.786511
-0.201383 0.28412 0.701071
-0.36034 -0.00590813 1.07223
-0.259105 -0.147306 1.19935
0.15236 0.160892 0.820671
-0.525808 -0.202372 1.22979
-0.397031 -0.154963 1.29861
0.0532572 -0.293102 1.31008
-0.0408823 -0.133258 1.20677
-0.282381 -0.143762 1.20979
0.0108644 0.0623815 1.00189
-0.277209 -0.191244 1.32194
0.0703189 -0.0811004 1.14922
-0.208798 0.285692 0.685565
-0.234714 -0.00506626 1.04584
0.024175 0.292294 0.734279
0.494534 -0.0467032 0.896528
-0.552603 0.112645 0.908823
0.0825311 -0.324798 1.33272
-0.270424 0.154748 0.858574
-0.215614 -0.17144 1.30387
-0.616207 -0.0191705 1.13296
0.528375 0.0736696 0.834412
-0.470628 -0.147044 1.24208
0.0880869 -0.0808452 1.07789
-0.380949 0.0276142 0.990592
-0.37486 -0.0121158 1.10598
-0.252444 -0.165369 1.27425
-0.360733 0.133166 0.897469
-0.323532 -0.121538 1.26791
-0.309764 -0.143098 1.21995
0.0181403 0.0282386 1.01225
0.0206571 -0.249561 1.42472
-0.561185 -0.0104004 1.1212
-0.00158743 -0.0587194 1.03904
-0.0908281 -0.0305219 1.0965
-0.403267 0.0138458 1.01232
-0.453227 0.151069 0.840265
-0.366989 0.0132151 1.08358
-0.615546 0.0302657 1.06126
-0.258592 0.0521854 0.953949
0.0567175 0.031233 0.949508
-0.430589 0.0177643 1.02351
-0.204033 0.258997 0.696446
-0.263665 0.133326 0.861861
-0.326923 0.072311 0.976463
-0.188327 -0.153801 1.17781
-0.374286 0.0231595 1.00512
0.0372167 -0.00428595 0.97749
0.31945 0.155643 0.854544
-0.447133 -0.0334586 1.15699
0.0798741 0.268994 0.745828
-0.217126 -0.0388688 1.15868
0.566029 0.00398586 1.01341
0.0909976 0.0119911 0.976593
-0.213957 -0.181684 1.30196
-0.29462 0.245037 0.712878
0.0783617 -0.0764055 1.07086
-0.215829 -0.178985 1.30092
-0.298433 0.133756 0.907597
0.512268 0.0175948 0.948178
-0.459013 -0.254868 1.29927
-0.540407 0.0328641 1.05005
0.173787 0.146496 0.85439
-0.144828 -0.0196422 1.08224
0.0371505 0.132072 0.925809
0.323965 0.143757 0.864634
-0.285826 -0.00442563 1.04318
0.612417 0.00929756 0.991889
-0.423712 0.0277247 0.987727
-0.62768 -0.0412495 1.12686
-0.291617 0.230161 0.712191
-0.454188 -0.244896 1.25917
-0.295696 0.225938 0.70973
